# .PCD v0.7 - Point Cloud Data file format
VERSION 0.7
FIELDS x y z
SIZE 4 4 4
TYPE F F F
COUNT 1 1 1
WIDTH 1549
HEIGHT 1
VIEWPOINT 0 0 0 1 0 0 0
POINTS 1549
DATA ascii
30.447449 0.62188721 221.04123
-53.355774 2.6730957 109.45172
-38.731796 11.515808 258.33145
35.684631 1.9356079 78.975128
-59.281296 3.1644897 111.31918
75.546112 7.0117798 0.72827148
49.644897 5.2301025 96.776428
22.173935 -9.6768799 24.537567
48.992172 11.225952 230.47852
71.169403 22.352234 8.6262207
-36.08194 12.558533 280.88492
37.086075 4.5402222 271.94257
-37.879395 -0.98406982 154.73825
-57.339645 -4.6751709 92.75119
91.987305 38.404846 3.5853271
-43.229675 12.560059 4.5422363
20.088043 -11.607666 12.907837
-34.076157 3.4417114 281.57758
4.4599304 -15.494202 199.11639
-38.747238 -19.708801 58.044159
57.481186 9.6157837 251.9566
27.686127 -2.0909424 141.70184
25.988831 -35.78186 304.66287
29.505219 3.204834 291.51056
-3.1784058 -17.89801 161.36841
-56.510818 -18.795349 7.5224609
44.113464 5.0718994 20.823547
66.645905 9.0968628 304.55139
-52.853256 -15.429382 36.548065
61.684341 -17.27832 -3.0179443
-9.3648682 -21.07666 110.3989
7.1737976 -8.5324097 154.38184
48.628601 10.935181 243.84262
39.724854 -30.893372 304.58795
51.246384 -36.629211 300.81708
-56.635117 -28.862244 4.4741821
26.662643 -13.834839 41.843323
-32.416534 -20.591675 70.825287
-50.429764 10.442078 192.50427
17.265305 -24.248413 7.3678589
-35.710709 11.948975 277.86649
52.752502 8.1347046 98.391144
-37.976929 -26.0177 8.9760132
19.899353 -5.6015625 138.71021
-37.343597 -3.7852173 131.30469
16.07457 -4.0064087 221.63223
6.091095 -12.330017 253.36578
16.409195 -14.961548 161.85995
-45.923813 -25.637817 6.2019653
15.125046 -12.23114 238.55804
53.520981 16.013916 137.01031
-18.875397 -18.70752 8.9851685
21.405212 -13.885986 132.33051
22.652161 -16.137817 43.560089
-88.550705 -38.631531 296.97565
-1.2026978 -14.417786 218.28659
-59.5504 2.5331421 90.816284
-25.242325 -23.338013 61.409546
-20.799347 -8.505249 238.12085
-3.8118896 34.854919 304.82944
39.266724 -3.5328979 157.6568
43.475769 7.7888184 69.999359
-53.426071 4.9094238 126.18643
-19.372665 -12.265686 202.38666
-27.334564 5.828064 266.98984
60.23851 16.074951 76.803345
-36.574234 27.378662 4.5267944
0.073913574 -21.169678 98.601074
-16.648254 -16.191345 55.176392
61.492264 18.913696 105.31335
-38.596909 7.8109131 227.96259
44.652985 -2.6087036 293.27502
-22.159546 -14.091125 172.38046
16.783112 12.270325 304.69397
-16.480774 -25.319763 51.273926
47.774567 10.366882 279.03577
42.455231 -1.092041 259.18359
60.719116 13.093628 20.7388
-13.861176 -28.648804 15.520996
35.899231 1.8515015 69.421631
60.879913 -4.576355 304.53558
-27.675232 -20.791199 81.662354
-16.281097 -2.24823 229.15244
-57.791153 -0.54852295 63.575714
-47.552551 -1.7433472 167.2149
17.88385 -10.8479 258.55469
32.886108 -7.444397 179.8999
-42.369484 7.8825684 292.43323
62.184814 12.869446 10.506042
-0.24986267 -13.180359 237.43875
-54.21843 7.6386108 155.87296
-26.878723 -10.511597 192.74847
52.919785 15.776245 113.52249
8.8691101 -11.374695 291.10406
74.14418 28.959778 304.54608
-28.514404 -6.0479736 144.53552
-3.4955597 -20.483887 119.99878
-5.341568 -22.47467 86.731354
-27.533966 -1.1066284 278.08752
-0.43231201 -1.939209 274.29218
-78.222885 -9.9425049 3.7495117
-50.751518 6.7070923 154.55536
8.7043152 -19.015198 110.61542
-41.621262 -2.5637207 191.69611
60.008362 20.60791 199.5813
-6.8931732 -3.1948853 244.09198
46.330963 9.5110474 182.21692
67.440781 23.16748 249.07336
-56.977158 -3.7144775 101.41629
38.044846 -6.928772 32.912659
-21.005951 18.377869 4.4916992
40.282959 5.5513306 190.21814
36.562347 -5.3627319 174.28717
18.374939 -5.210022 169.25269
-43.25518 -3.6069946 174.45367
51.129166 12.870239 221.76868
42.688049 -1.0613403 78.355774
-44.096382 9.5012817 270.5127
-2.4126434 11.834534 304.79736
64.318878 17.455566 190.02701
1.5411987 -13.383423 236.41406
68.656052 32.985474 304.57172
11.07193 1.7182617 4.4025879
-41.716301 -6.8452148 85.135956
54.105484 -4.1395264 4.7182007
-30.518921 9.8105469 287.39197
-25.413132 -26.466125 29.983368
-4.6300049 -1.8846436 267.20679
11.030457 -14.305115 206.30542
29.100845 16.090637 304.7355
57.031494 16.758545 275.87732
17.493332 30.342834 304.71381
-30.823883 -23.592896 46.321472
-13.851883 -13.559814 90.519287
-50.311348 1.5280151 176.39825
35.677521 -6.3378906 77.019165
61.189926 15.336426 158.47372
-56.535416 4.7024536 152.09357
62.832123 15.073242 221.81281
-17.28476 -17.250732 151.96298
-36.061401 -1.9406738 154.38031
5.4838715 -18.422791 140.17578
-25.248993 -21.335632 82.100311
-6.7635345 -10.460327 139.65042
38.105576 -5.4660645 292.77148
-27.812302 -2.1062012 187.58212
37.702271 -4.1341553 226.75177
-13.151306 -5.7576904 196.61478
43.15564 -0.80096436 185.26404
-87.533081 -26.406921 4.2376709
-18.209869 -11.937378 211.36102
-31.942902 -14.913086 44.291138
37.281097 -5.704895 54.790771
-65.644028 -38.380066 0.072570801
-31.604034 -16.332214 114.99805
-32.44313 6.6464233 249.24283
-18.151459 -1.7542114 228.25598
-0.18161011 -15.381775 203.55585
50.829468 13.39624 155.19968
-13.795654 -11.045837 124.96695
-11.660492 -12.957275 99.768372
-64.244873 -38.384827 -3.3743896
-37.258575 -9.250061 158.63611
-35.265656 -4.0241699 213.72922
-41.562706 -14.224243 94.894348
-14.479156 -3.769043 216.61697
-16.854843 27.61908 4.484436
-40.977631 14.216614 267.10449
-30.608109 28.013733 4.5147705
21.924667 8.1635742 4.3704834
-43.868484 11.894409 233.03528
24.824783 -5.1870117 66.740051
56.508041 10.087097 184.08478
-12.907135 -19.935913 125.53168
-1.046051 -15.731995 48.723877
47.157806 2.7576904 105.36713
75.154358 31.157837 4.335083
29.473938 -1.1766357 141.81711
52.385941 6.1123657 36.302338
-10.079773 -18.036621 155.70377
15.060455 0.071228027 4.4229126
-13.961655 -12.28894 107.11938
59.12326 20.540466 30.484436
-39.726593 1.9943848 239.26855
-0.22929382 -1.2866821 284.21219
7.0036926 -11.367676 92.63092
46.215179 1.4937134 185.79178
-47.742355 4.1738892 150.21823
21.066528 -3.0687866 209.08734
-7.8812408 -8.7549438 282.00629
35.88707 -5.2791138 214.32422
16.809937 -15.081238 151.60547
-77.294472 -9.5537109 297.87564
-14.729019 -10.955505 294.90402
49.544815 5.06427 62.668518
-26.667358 -1.0400391 203.58005
49.151917 3.2509766 267.76782
-84.071152 -20.153564 -1.6222534
-35.466629 2.4103394 265.60129
23.513901 -10.144775 242.06305
29.163086 4.8747559 4.3760986
18.852005 -11.233704 244.21643
-56.269455 6.0170898 138.61255
37.711487 -4.5448608 166.94635
56.359451 18.186768 152.20917
-2.1076813 15.579712 4.4278564
-8.6884003 -15.728271 60.935974
-81.507523 -38.441772 -2.0467529
56.551575 16.627808 257.01025
-2.3694153 19.090881 304.80402
13.45224 -4.0601807 232.07532
15.78685 -1.5333862 279.52124
-15.828735 -4.7424927 4.4700317
32.425888 -0.043823242 91.314667
-10.55928 -18.703979 146.17664
-47.549011 -3.6953125 86.782074
-53.76902 15.962585 304.93893
-20.398834 -3.3088379 202.97537
-47.820236 2.449585 196.66003
4.4898376 -20.908203 91.821777
17.440094 -30.285461 304.65149
-26.220184 5.3364868 304.86774
49.56778 11.830383 288.89587
25.245651 -1.7650146 208.66669
4.3117371 -15.672913 195.10562
-16.875092 -4.178772 205.49384
-38.081497 10.202698 250.96426
3.408844 -9.7208862 141.60196
66.924957 22.671509 237.73114
-20.272171 -1.4761963 224.07339
-44.503754 5.1837158 236.86224
54.181656 7.6761475 194.28122
18.13974 -20.547729 18.525208
25.713013 -12.468628 98.203735
58.927155 21.468262 293.25153
-0.77218628 -14.215149 5.7772827
-2.1712494 -25.219727 40.851379
49.354904 4.6948853 65.91037
57.027435 19.881287 47.878174
10.120026 -4.4680176 232.11267
-41.084167 2.6964722 171.97577
-10.299835 -11.753479 118.00003
-18.229477 3.1940308 4.46521
39.952957 5.2055054 173.86121
21.168991 -15.268921 77.931946
35.120728 -6.6022949 110.91608
-14.568466 -38.213989 0.88342285
-34.666779 11.829407 304.88324
-30.371094 -1.2014771 262.64856
16.011902 -7.2524414 129.57541
28.997437 -2.84021 61.839142
6.6783142 -18.595947 127.61212
5.9335785 -3.159729 260.41232
50.990753 14.25647 61.101044
-63.477356 -12.46283 9.5664673
77.316208 22.689514 4.4078979
-47.698776 -34.661926 304.88007
-42.629135 14.569641 260.68024
89.826813 38.298889 296.49103
-17.805527 -23.260803 74.823853
-51.8741 -6.0675659 110.97455
-17.5457 11.329041 4.4627686
20.455261 -6.9598999 77.862793
-35.404373 -38.223206 4.1310425
-25.399857 -8.3803711 220.29562
-61.118011 -1.690918 90.530273
61.135254 16.333313 46.752136
-37.510818 7.777771 233.54443
24.5495 -9.5098267 245.94849
11.411499 -6.4439087 184.07336
1.5672302 14.069031 4.4086304
-33.580627 -11.012085 76.405792
-11.046539 -21.23645 109.21344
-19.981659 -20.539856 105.27444
9.4850464 -6.9152222 183.34174
-20.614166 -15.010132 168.87561
-30.422852 -18.276123 17.082306
-39.820824 5.1794434 199.49829
11.747177 34.09552 304.75171
56.624039 6.3140869 292.01556
-29.455795 -1.0093384 269.14502
6.8947449 25.947449 304.78159
-9.3371887 -11.57489 121.27289
-46.146935 10.396301 293.0545
-0.26470947 6.7947998 304.80078
-27.30098 -3.5942993 256.55911
16.565445 -17.043701 87.42746
-25.613708 -38.257141 -2.1011353
63.529541 27.519348 6.9743042
-19.877075 -17.48175 142.34973
-46.889648 10.438049 204.64175
11.043106 15.221924 304.77985
-4.4751129 -19.559692 133.94513
6.1866455 -11.351624 271.97241
26.752167 -10.581909 166.09753
-50.566414 6.008606 207.5871
-25.171722 -16.240295 138.58356
83.030457 20.023804 1.9699707
4.716217 -22.980957 50.880707
-58.350273 -10.043701 304.85275
86.193436 38.370361 -3.6450806
-8.6617584 -9.0228882 159.99771
-52.248352 3.3175659 178.57156
-84.983994 -32.965881 4.449646
26.687408 -2.8389893 124.48135
-53.11293 3.4102173 174.02377
25.419128 -14.352478 46.595551
32.242279 3.581543 290.36035
-27.826874 -6.0965576 304.76947
-77.780426 -22.920715 4.4592896
39.057281 -6.3479614 30.915802
64.342834 16.329468 238.78485
-25.346008 -11.415039 96.173981
89.782867 38.226868 298.5484
-38.636963 6.2674561 278.27533
-38.014374 -5.1482544 116.0127
25.81308 -11.50177 148.40442
58.230515 12.253235 159.32224
22.070023 11.685181 304.67969
-15.907349 -2.2038574 231.2326
-12.979523 -38.333252 304.26453
-3.2049103 38.02771 297.92682
-25.493683 -0.6751709 212.07196
65.856171 38.30365 -0.12860107
-7.656189 -12.336792 109.50946
43.323471 32.106506 4.2987671
-30.187927 30.946838 4.5181274
52.020737 4.3746948 22.783051
-28.664642 -5.1013794 235.48987
-31.126495 13.958679 304.79303
57.20488 10.020264 224.3237
25.466919 -3.7606812 111.64761
18.519562 -3.9082642 209.00412
55.686783 6.8457031 13.072327
42.970505 3.9606323 19.408783
3.1896515 -18.414246 144.73492
53.415131 8.3867798 120.3797
46.206497 9.6077881 174.74304
-6.2910004 -10.998474 257.77975
56.064346 18.492126 124.05164
27.764191 0.27587891 250.66528
-4.3091431 -14.295471 75.271088
22.281296 -10.337097 291.59692
14.485275 -10.387634 60.461304
-47.980865 7.1817017 231.1037
-61.948624 -6.5133667 304.86258
46.216965 9.8521118 133.60931
-30.338959 -25.797607 27.032623
52.346649 15.027222 125.65344
-7.6767883 -14.55426 75.354919
11.234833 -17.635132 129.18701
54.613052 34.555542 4.2601929
28.161285 -7.6677246 272.75723
14.816162 -4.6730347 209.86096
-21.842346 -17.026917 141.67847
-50.253021 -8.3380127 102.1788
56.467224 12.030823 68.897827
-36.734375 -16.434265 94.860535
-46.869339 9.2880249 252.3096
17.338135 -13.022461 14.492737
-70.799301 3.03302 -3.3641357
-22.373199 -12.682434 304.82031
2.0606995 -16.095886 37.689453
47.70784 2.6057739 196.44449
-32.193024 -0.9206543 293.87393
45.582794 8.9484253 216.41998
73.584045 38.239075 296.79587
49.113403 11.449158 211.78006
-8.2895508 -19.863525 129.2883
14.433563 -17.37915 108.22003
48.113831 3.7528076 110.09628
27.427307 -0.093261719 241.93631
-72.739349 -15.778503 4.4998779
-51.959305 9.5302124 183.07767
40.13945 -2.9109497 175.6312
8.3648682 -12.435425 62.799072
29.941467 -12.18811 38.226501
4.8706055 -10.851746 279.30066
-17.835037 -31.499695 6.9898071
-71.251221 -2.4638062 4.6403809
65.635376 23.994568 257.66238
-7.0294342 -16.093079 53.810699
39.587875 5.0214844 160.17502
-13.123474 -11.616272 304.7482
-76.867142 -38.394897 2.3841553
-41.1297 13.396851 260.02838
43.708191 -19.480164 304.62616
12.386444 -1.3388672 288.69415
76.36705 17.256592 4.4208374
10.161682 -15.713074 304.74042
57.166504 20.274597 88.056488
50.425461 26.794067 4.2677002
-29.338135 -10.75592 92.027161
-52.122925 -38.399841 297.83325
-51.093765 -23.009277 6.3615723
62.687607 18.548584 138.12573
54.506744 16.970703 42.766815
38.242371 4.6509399 236.46442
57.655685 12.793274 107.00876
54.835449 10.389526 77.51123
-9.1546326 -13.290466 94.840576
25.284546 -4.3345337 88.780518
-4.9475403 -19.307251 140.10919
-10.616074 -6.59021 191.43893
57.208221 11.762939 131.05643
78.104401 10.209351 298.33221
45.989594 1.3358154 155.66351
-51.221359 -10.624878 13.74585
0.50854492 -15.457397 47.445068
29.41861 -16.470947 8.7122803
-50.218246 0.20556641 105.80597
-10.430634 37.958557 302.24164
33.585388 25.987183 304.71252
-39.20787 -24.037048 18.102234
42.972916 19.207092 4.3334351
29.413025 -0.83410645 167.2244
69.000549 19.971069 274.0307
-49.747559 -4.27948 135.09323
50.83551 10.959656 18.881256
-29.537445 -27.273621 304.82343
40.32756 5.3499146 91.679382
56.954514 12.019531 104.94376
-0.72224426 -11.282837 121.39154
6.6298828 -21.130432 304.72479
37.86731 3.3532104 72.962799
20.819275 27.02417 4.3684082
-87.137878 -26.699646 302.93634
-36.709412 -19.141663 69.181519
10.224838 -0.11999512 304.74622
-8.9137573 -14.887207 199.67725
-8.4707336 -11.86969 117.14441
-27.720734 37.955872 297.58887
-55.392487 5.1729736 165.44
-46.595985 0.89801025 129.29208
-6.3183289 -13.728027 220.6362
44.426102 -2.6054077 22.935913
56.746521 12.205811 75.178467
50.154388 4.7397461 160.09167
36.832947 -4.1776123 268.43713
-29.043289 -12.912292 160.17566
-44.749557 -10.833435 40.584778
63.013794 14.259216 274.0806
21.988541 -1.499939 252.31506
-15.52655 -16.488037 52.349304
-49.830444 -18.522156 25.179077
37.167999 -38.05426 1.7980957
16.860138 -6.8674927 131.93066
32.028793 -0.55487061 76.471222
-39.41954 -19.599121 55.451385
-19.869629 -4.2984009 283.79022
-20.046295 37.944519 299.76889
61.151886 16.669006 103.52826
-4.0060883 0.35162354 4.4471436
54.468842 -0.1942749 5.9088135
40.207428 9.5949707 4.8586426
-0.024505615 -12.882324 242.24274
-29.323486 -4.7512207 304.86761
-45.446289 2.7423706 213.01538
-28.566193 -2.0300293 264.48523
44.961166 13.494202 304.63281
54.927597 15.374512 288.62595
-0.27458191 -13.360596 82.495514
42.486221 -2.9036865 35.991364
-48.701752 10.637085 244.98169
61.353546 20.394409 131.87909
28.180847 -2.3161011 107.38055
-13.64296 25.4953 4.4690552
-38.736969 -5.8521729 179.26404
28.06604 -2.0889282 130.69452
-30.162689 -15.716431 41.155365
48.211227 3.8547974 70.84787
-22.089783 -8.6159668 232.19019
-54.261658 -14.336182 38.830902
4.6676483 -9.7914429 137.42819
60.358917 15.944519 92.700256
24.488632 -2.6264038 181.17865
89.160187 38.384155 -1.7796021
-9.0586548 -23.18042 78.199646
-10.921112 -9.7850952 292.95734
57.76947 20.839355 70.572266
-22.795563 -20.772095 304.82031
45.987228 9.4732666 169.74338
48.61824 3.9683228 119.13791
-21.893433 -7.8851929 239.70932
1.5967865 -12.962585 244.14743
17.104828 -1.0964966 284.6156
-28.87262 -7.5029907 127.86136
1.0648041 -7.4971924 186.62494
-21.028046 25.313171 304.78653
40.132996 3.3462524 35.143707
41.176208 -2.1143188 169.64288
16.513336 -35.371338 4.2705688
-41.751503 -6.5973511 87.130554
37.431702 -4.7628174 156.01575
-47.321503 -8.7568359 113.2272
22.379868 -6.2148438 74.179626
1.9866943 -13.164734 79.231934
49.307709 12.354675 130.0791
-29.417908 -38.263184 303.50089
-9.1891785 -1.2301636 263.71115
40.386658 5.5432739 162.45795
-27.075439 4.0617065 252.07172
-8.1353455 -38.249573 302.57599
77.825638 11.816895 4.1635132
-23.804443 -16.151306 48.557831
16.436737 -14.345703 179.34872
-49.221252 7.4989014 168.87405
-46.077881 35.667542 304.94299
31.294632 -32.680481 304.64185
-3.3812866 -10.856628 132.79373
-35.823166 37.908997 298.37354
59.272125 14.74408 83.2453
19.965729 -14.612366 121.71738
52.310944 5.574585 275.76947
49.68605 -35.477966 304.53381
0.23924255 -22.14209 82.901184
-7.1562195 -13.315002 94.441956
45.528793 -10.235657 304.61163
27.401413 -0.9553833 207.94336
-9.3062592 -20.047241 125.70459
64.501511 22.820984 280.6637
-52.432159 -0.89257812 86.493805
57.642548 19.637329 138.98923
-43.189407 5.6916504 247.77692
-42.91333 -18.97876 49.4133
-7.2942505 -17.130493 304.77258
61.870667 17.186951 122.28961
-12.589111 -16.999878 46.845856
67.858383 18.361755 283.93799
-29.612885 -11.980103 166.98877
-2.1386414 19.294617 4.4295044
-73.570328 -34.063721 4.4031982
27.901749 -13.800659 35.142578
39.321777 16.135864 4.3320923
-36.542908 5.4542847 218.39484
-57.493011 -34.177063 4.4232178
45.868011 0.36956787 40.923737
-41.486504 -13.067871 105.1694
-39.696747 12.643616 261.91669
-4.7310486 -13.531738 227.91876
8.0372162 -5.3258057 219.62079
-16.734726 -11.269409 117.13724
-42.370636 12.68103 247.15454
20.495712 -11.284241 231.048
-55.971191 -6.3169556 87.825806
-26.676758 -0.42462158 209.79889
51.954803 6.0480347 192.25842
41.167236 6.0201416 124.90799
-0.20144653 36.420471 304.77942
-46.549492 -8.6802979 117.89264
55.49826 9.8308716 153.92786
23.397461 -2.9110718 185.98178
-3.013916 38.010742 299.9884
-12.23558 -7.6409912 304.74469
-39.474487 -4.3304443 117.17715
-32.528107 1.8257446 4.5175781
-33.23291 -10.913696 161.32214
-61.775848 -4.9828491 24.511444
15.929581 -10.850464 42.948364
37.061951 -4.1750488 250.01291
-60.195572 -38.540833 297.09116
-16.792465 -9.4998779 139.35278
-21.13913 -23.863464 63.218231
-6.9651794 -8.7297974 166.01965
47.45462 3.1506958 100.36932
25.302948 -3.3278198 133.11267
27.366562 -5.4829102 36.939178
-12.835968 -22.012756 97.005676
-15.162079 -16.120544 56.618774
60.0047 2.2851562 304.57245
58.18248 13.599792 90.848999
-0.82138062 -21.046875 103.44278
66.746796 24.245117 263.09695
61.036194 20.952271 223.79749
-56.917694 -1.0117188 121.33572
52.561066 12.252319 16.164001
6.5010986 38.129944 1.9972534
-31.167038 -14.106873 139.64169
58.881714 14.311157 86.641937
23.735626 20.681702 304.7338
56.886841 9.0430298 20.191986
-31.58374 -22.788574 52.055725
36.043869 2.8921509 188.84366
54.219421 7.7254639 206.39819
-17.044022 -9.8822021 134.26999
64.183594 23.17334 230.94955
19.477173 29.19696 4.3635254
-13.175766 -10.448914 4.4950562
-28.593323 -16.697754 35.538849
32.33699 -0.13952637 87.770721
0.45132446 -5.1499634 226.98303
7.4953003 -19.894775 97.291931
57.611603 19.790466 131.18375
-55.899643 -14.936401 27.277893
-39.092224 -8.3567505 82.093811
36.882355 -5.2288818 102.16336
22.483643 -5.1085205 115.75055
56.028778 5.6591187 9.293396
-25.894958 17.001709 304.86609
58.170822 18.024292 250.2829
11.204819 -9.8725586 99.922852
-38.057571 -2.0579834 215.70285
-59.736832 -23.219971 4.7844849
-25.342865 -18.118347 28.120392
55.104919 38.179688 296.99118
70.28743 17.275879 304.55276
87.923309 27.271301 299.97864
44.171494 0.34069824 78.598999
63.768005 22.678101 211.33539
58.290436 20.601501 110.57983
36.460037 4.1650391 267.03458
51.402573 12.683228 286.31342
-4.8558197 -11.934204 248.22748
9.9921722 -1.1596069 289.40845
-0.67689514 -17.510681 29.601105
-67.943954 7.9633789 1.855957
13.331329 -16.221863 151.10568
-51.333481 -13.487183 58.10257
-21.467667 -9.3765869 129.89081
-23.515411 -30.050842 304.81805
-13.625458 29.103516 4.4578857
9.0411682 -11.963501 258.0358
-13.046021 2.8638916 291.03131
-64.616104 -35.297913 4.4102173
-39.620163 11.616333 254.35339
23.153656 33.383484 304.70355
-52.900223 -2.3535767 5.1019287
-80.859901 -36.615662 304.96066
-33.75354 -6.9302368 116.00958
51.621826 7.0213013 79.657593
14.539917 -14.017517 15.995544
-58.286224 -1.7172241 108.37115
-13.411942 -7.0995483 177.7594
64.668427 16.939453 15.864197
25.372482 -13.405212 63.708069
35.632034 -26.064331 4.2260742
-43.87558 -3.5806885 172.49774
62.682434 22.00708 242.98431
41.018295 5.9753418 133.93185
47.938965 -13.262817 304.58234
60.41745 14.876038 141.48376
-61.406479 -1.6121216 88.507599
-25.147507 -13.8573 69.840515
29.631577 0.99468994 251.40842
52.037048 14.889771 49.42981
-10.007309 -22.870239 85.544891
11.024368 -15.735107 173.6218
-55.86673 -0.55389404 72.804932
-38.869568 -15.145081 24.080811
-60.825684 -5.7949829 67.05011
28.08609 -10.282654 158.14838
-47.66626 -1.6201782 103.28561
-41.580505 -2.7657471 4.5305786
-22.156433 -13.256714 182.84644
52.580963 16.867004 304.59778
59.77179 21.04895 72.903564
37.066345 -4.2116089 247.88361
53.442444 15.7323 40.506134
6.9045868 -21.036316 74.912933
-59.657455 2.7381592 103.58145
50.693558 2.114624 14.165771
53.136932 6.5990601 222.64935
64.085831 17.006165 205.67999
-46.716568 0.58862305 188.65955
-28.159698 -7.5731812 130.12418
17.511261 -8.7244263 69.350525
-50.778091 -10.587769 18.069458
-21.682999 -30.888123 304.73944
-47.661072 31.536987 4.5317993
-79.531448 -38.468628 -3.0333252
-22.315536 -14.32312 170.37677
-41.265045 14.108826 264.96765
50.637451 12.31488 243.64569
26.653809 0.81939697 281.69693
14.39978 -17.491821 99.624023
-54.570724 5.9547119 130.40726
86.050262 23.740234 297.73593
-32.10881 12.624329 4.5075073
-17.60791 -5.1519165 191.3768
63.157227 24.356628 27.412628
-36.197235 -14.489441 37.313019
68.763275 24.623718 14.906921
60.748169 13.269958 225.22726
30.606445 -11.308899 44.430695
28.037888 0.62945557 260.23697
15.624725 -29.541504 4.7504883
-38.226929 9.112915 240.65277
30.318344 -8.7651978 170.81293
9.9003296 -16.819824 153.9238
-40.438248 12.92926 304.89209
34.566177 -6.6242065 164.29196
-18.629883 33.185608 304.79434
0.10400391 -15.28186 50.659363
3.4657288 24.331543 4.4354248
-61.760391 -0.1776123 85.859802
-23.503265 -23.714966 60.480957
-7.9916382 -24.34729 60.744446
19.643967 22.863586 304.74774
-6.9989624 -21.393616 104.8096
35.510483 2.4862671 160.20917
-52.873657 -13.309998 51.79303
61.992432 23.017639 25.354431
-37.032166 11.93573 270.43692
78.446991 14.027344 304.58469
-41.63459 14.951721 269.23956
38.759613 -3.8148193 177.6283
49.606384 4.8226929 57.604797
50.144165 5.2120361 128.92242
-51.927895 9.5147705 179.92432
-56.996567 4.2676392 146.979
-22.561615 37.367188 304.80664
-55.883652 26.263245 304.86609
0.81680298 -15.196777 6.7003784
-30.685333 -19.958984 81.173645
-38.049683 35.23468 304.9024
35.388535 3.0084839 222.43784
2.7964935 -26.327515 17.409485
53.74559 7.1331787 220.34564
9.0483093 -14.219299 35.339417
39.652924 -3.2839966 79.229614
-36.861053 -23.998291 26.345886
60.068604 14.239685 152.18024
-11.295441 -19.078125 139.77924
-47.84726 -9.7416992 102.20596
-46.575272 3.6582031 4.5333252
17.001648 -13.057434 12.337097
28.679153 -11.054077 82.094849
38.546951 4.7960205 232.79974
7.6606293 -19.222717 108.7056
7.5005493 -12.582153 250.62646
13.367569 -17.679382 109.98004
-48.304657 -10.978394 26.000244
42.653168 7.0455933 138.22778
-33.557709 -7.3828125 192.52203
-31.956787 7.237854 257.04214
41.456085 4.1112671 33.13678
55.316635 2.5568237 7.0579834
65.197357 23.602661 243.5105
-46.292358 -2.7485962 100.70966
51.473816 13.500732 178.24692
9.7083588 -18.041565 124.50677
-74.997574 -26.330444 4.4387207
48.961548 -25.002441 4.1253662
-0.6680603 26.991516 4.4306641
-27.527069 -11.673035 304.84503
-26.232925 -6.7744751 144.88995
-33.70224 11.309265 283.35406
-44.428024 -7.8847046 135.09738
-17.675293 -8.5779419 250.55838
51.800491 7.3421021 70.631134
-38.173294 2.7254639 186.3985
-21.187042 -28.612671 11.385559
-23.019318 -13.404358 176.74573
12.369324 -16.822021 142.17511
-57.405182 -7.0429077 16.027954
-13.360382 -10.921021 126.92422
-43.58522 -6.0987549 84.057709
39.490784 -3.515686 107.7316
23.062088 -13.083862 134.00366
64.266693 12.21637 292.63202
21.130676 -5.9302979 103.74631
-39.190857 16.89679 291.40265
5.2243652 -13.1875 64.228271
-12.044067 -12.699707 103.16049
40.621185 -5.1479492 30.439819
29.035187 -14.786987 16.380615
-34.210236 16.400391 4.4996338
-30.058105 8.2312622 275.63477
57.058014 16.501099 13.247742
63.533295 14.601257 283.23334
-38.552399 -5.2414551 186.47516
-24.162048 -1.7182007 206.57562
12.80278 -12.178833 247.02631
-26.973114 -2.7168579 292.64868
-11.346283 -29.165527 10.480957
12.816223 -20.061157 52.716614
-28.944519 -26.676758 21.412201
-4.5948792 -24.148071 304.70468
-37.051422 2.9243774 193.3512
47.746689 2.7156372 186.98343
-7.90802 -11.179871 128.10547
-12.100372 1.4332886 286.24994
-65.049438 8.1981812 4.5879517
-15.667114 -17.140747 6.8430786
43.348846 -0.30615234 114.47791
-16.012344 -8.3845825 258.05212
4.7458191 -4.1832275 243.90582
-51.318741 0.57904053 103.60651
-26.719376 -13.226135 72.809418
-24.112183 26.928162 304.81998
93.156219 37.708374 -2.0472412
-48.12719 -5.2609863 136.92343
-51.085587 11.67395 4.5521851
-35.680176 7.1921997 237.59036
-37.674683 -15.673157 98.718475
-20.505905 4.3346558 284.10208
52.615753 8.1110229 93.070984
-62.187271 13.532593 4.5742798
44.641144 -5.6281128 8.4449463
-26.529968 2.815918 242.33609
59.126587 20.822021 112.68149
53.017029 6.3875732 32.465668
-47.733719 0.88665771 123.80243
1.3078766 -25.135925 33.472595
4.352356 -18.313782 143.01794
-54.580017 3.6583862 110.88953
-35.620972 -16.579407 20.46521
11.146851 -9.4009399 110.87244
-25.577881 -30.803528 6.78302
13.622192 -9.8390503 78.310211
-2.5017395 -10.420227 139.4371
39.729004 5.2661133 220.08237
-62.39296 -3.8660278 34.547058
42.812714 7.1803589 184.21729
-41.438019 -1.2185059 136.20624
-72.060593 -38.419006 -2.3328857
48.588715 20.615784 4.3632202
-36.959991 4.7856445 276.55444
13.033142 -11.130371 270.08081
-32.974609 -20.031433 74.327545
61.802505 14.041504 234.86267
12.526382 -15.230896 183.59982
-29.543381 38.019775 -1.182312
56.940598 9.4265747 245.2298
19.548553 -15.160156 114.93625
-25.660782 5.8250732 4.4787598
-34.606735 -9.5941772 86.794769
-11.826447 -11.516174 235.8454
28.472794 -3.7427368 49.816162
51.983551 13.926636 37.58905
10.023041 -15.961609 14.47644
71.225281 8.656189 304.62018
-13.511307 -14.615051 194.45428
50.963211 5.1699829 198.21469
-22.495056 -30.827393 7.1662598
37.615326 3.9264526 190.07135
10.085251 -10.448425 287.18787
25.743057 28.787231 4.3727417
56.434952 11.825256 65.541931
-37.823563 0.44049072 167.66315
10.306961 -16.491821 161.82358
57.708618 13.125854 73.449677
38.328064 -36.455078 4.1193848
51.556122 14.835327 96.834808
31.142517 -10.744995 46.438141
-41.916443 37.982727 2.1671143
-7.7494812 -13.410156 224.02359
16.387787 25.394226 4.3748779
44.156616 0.02154541 179.43423
-10.856903 -14.01239 85.143372
-53.599625 32.932068 0.80932617
62.169876 20.096252 57.562958
-62.012939 -8.9354858 40.319702
-20.332794 -9.0250244 234.02551
-55.943558 -13.173035 39.230591
35.856796 2.3694458 108.1842
-17.460022 -14.73053 72.292114
66.296997 -10.475098 299.30023
43.074799 -0.74768066 82.828461
34.305496 0.47302246 56.69458
21.840393 -14.052551 111.61438
42.284714 5.6434937 40.999481
46.961441 2.2883301 164.33731
17.690445 -5.9052734 155.27243
38.413269 36.080139 304.71249
4.5114288 -28.318359 304.73486
49.857346 3.8397827 253.2438
-40.95842 3.3417358 242.93411
37.335663 3.8056641 194.08804
28.869537 -5.5543823 26.642303
40.905731 6.4692993 275.26648
-41.261429 -12.800598 36.5625
33.011475 0.98419189 165.42252
29.425385 -11.883911 46.740814
-20.188095 -7.7493286 153.1636
-12.354431 -7.6290894 4.4502563
-12.78476 -12.971069 216.07065
5.3356476 -11.636902 264.87354
56.706116 18.202332 166.82983
-38.493195 -2.4514771 4.5122681
11.910995 -29.599548 304.66104
-31.487976 -9.4730835 98.409821
35.337982 -37.862305 -4.0626831
31.543396 -8.0601807 172.44843
-26.66861 -18.691528 108.30173
-7.2580719 -23.566345 72.751556
60.678421 12.268677 14.111084
68.678391 23.15802 262.39154
72.942276 21.36969 304.60196
-49.428917 -0.2086792 168.65424
3.026947 -11.083069 290.54572
-51.418304 3.4865112 125.73944
-59.141502 -15.408203 304.90515
-23.234268 3.0413208 259.42719
-10.144791 -2.8259888 241.12634
36.912567 -5.1915283 107.71179
16.563751 -33.676208 304.63315
36.008926 38.202454 -3.3123779
83.810043 20.139038 298.86237
-50.633957 -36.276794 4.3897095
3.6800842 -10.467102 126.50262
93.932587 37.752441 298.90607
30.822037 -38.273743 300.16925
6.285965 -7.9244995 169.79749
18.420593 -14.76886 304.70795
3.7071533 13.588684 4.4036865
-11.676483 -12.759644 220.79654
-45.907478 1.2319946 199.00928
10.400391 -22.970825 27.828766
29.494705 1.2958984 264.81061
-92.269501 -34.460205 -0.47723389
-3.9631653 -11.138367 261.28827
5.278244 -38.164062 -1.2018433
13.17334 -16.66394 138.93646
-25.688568 -24.468567 49.040985
6.0335846 -36.470398 4.3104858
20.354858 -11.279785 235.42889
49.605408 3.6046753 220.46976
22.123627 -2.0897827 231.41919
-47.416626 3.2637329 144.4884
-15.883881 -18.962402 133.55023
-46.885666 -13.10498 79.573792
-39.105774 -12.770691 304.78149
61.129578 19.353882 86.356415
-62.983353 16.619995 -1.9312744
-1.8894958 0.36834717 291.40869
-36.987137 -2.8320312 304.78543
23.875122 -7.9824829 32.265045
1.8870544 -11.502625 265.53506
-48.928497 -10.903625 24.064148
43.814056 8.1533813 103.14859
-55.9263 17.88147 4.5537109
46.672134 10.06958 156.67163
71.526947 14.039185 304.6048
-32.894226 1.713501 273.86646
51.219711 4.5678711 263.71704
24.703003 -15.122009 43.160889
26.611694 -1.3850708 198.56857
14.693634 -4.4723511 217.52881
-53.531128 -5.776123 45.013519
-2.8120422 -38.015564 304.68915
-25.069885 37.977051 297.46393
49.937408 11.829102 35.01358
66.978027 18.692322 247.16663
48.202179 10.651611 245.91809
45.732483 0.97949219 210.09204
50.893539 5.5031128 44.644836
39.202011 -3.677002 162.56909
-41.45401 -12.356873 39.51297
-4.6386108 -10.177734 291.30713
38.5159 -5.5738525 43.018005
-7.4102173 -9.8465576 148.97876
60.829803 13.753967 25.75705
25.022018 -38.121155 296.84424
-55.125519 5.4709473 169.30139
-65.48526 5.5968018 4.623291
42.8172 -0.96154785 130.49997
53.737488 5.6168823 19.405151
52.490326 6.6050415 179.24927
37.014252 4.1486816 248.93976
1.1392212 -14.960083 52.379547
37.424667 -30.968018 4.1662598
-31.792694 -17.4328 304.85168
19.145996 38.139221 4.0638428
-39.512711 37.98822 3.137085
38.75827 -5.0614014 47.157806
-19.426132 -15.818298 161.61578
30.615463 -0.37939453 148.80368
67.656998 22.178589 241.89478
-53.860123 -34.748108 304.81299
1.4094543 -22.53772 71.873505
51.9841 28.123779 304.61432
-37.133621 5.9163208 284.33725
-7.8519287 -27.067139 28.822449
34.973785 1.4783936 85.621033
66.725662 18.381775 252.33603
-43.759872 -8.2572632 64.752716
2.1385498 -11.863525 103.47968
-33.12468 -26.022095 17.232269
16.396515 -13.260376 16.546387
7.9317017 -3.9992676 245.79327
49.56076 11.906677 200.72525
-41.934692 11.517517 240.18655
-36.328613 12.956299 282.8963
-13.385483 37.951965 300.03845
-92.750198 -35.298889 -2.5671387
-17.799927 -24.133911 64.510651
-88.461044 -29.30304 304.78436
5.7688293 -10.009277 127.75815
41.266434 6.0844727 89.95929
-16.911591 -8.0966187 157.46301
7.5669708 -16.847412 167.19717
-16.834564 -26.008362 42.348877
61.624054 10.337097 8.0546265
34.47818 26.756653 4.3313599
40.04071 5.1878052 106.49121
-14.358704 8.7186279 4.4570923
21.379501 -11.797119 205.32352
-56.36203 -13.273071 36.677582
4.4272156 -30.391174 304.7464
-59.834641 -10.924866 37.951904
-48.605362 -17.843994 35.885315
-85.860779 -35.442932 4.4263916
59.248077 20.783142 102.09967
-49.461548 -0.82788086 101.36285
51.323853 -32.523865 304.58624
-29.921799 -2.5137329 253.50229
-15.821182 -9.8626709 242.59625
8.376236 -19.332153 105.55176
39.909164 5.0748901 81.831909
-12.324966 -20.010437 11.957153
-45.413628 13.928955 244.33514
-62.175735 -1.5330811 51.299255
40.313736 -8.0756836 10.025085
48.185944 10.97522 186.59787
-69.712921 -27.559753 304.93439
53.910233 16.927734 52.882538
11.915451 13.770569 4.3928223
11.917404 -23.802307 12.960327
39.050049 0.73162842 18.724976
61.667664 17.708801 63.714691
-42.304184 -19.741089 45.4617
-25.302933 -8.5125732 218.27008
50.771133 12.412598 245.681
2.2111969 -3.6793823 251.15607
17.159241 -9.3294067 58.410583
15.299515 -12.445129 28.932922
49.083954 24.188904 4.3076782
37.397964 -3.6897583 281.49954
53.147888 13.231018 20.422668
-11.55011 -38.227356 0.52655029
-35.878418 -19.318909 71.411499
-47.180832 -13.964722 72.544861
-21.688492 -16.218628 304.74475
3.8873596 32.187073 304.75104
-45.202652 -4.8207397 88.143616
26.52623 -10.994385 151.26904
-20.247208 -35.679932 304.80957
43.586456 33.780579 304.64038
5.0059509 -3.3514404 257.41916
-61.429321 -24.347961 4.5183105
-15.872406 -10.63092 126.65308
-24.350906 -18.732361 23.673401
3.855835 -26.994446 10.457458
-26.799988 -2.0042725 193.24753
47.552933 2.815918 52.008362
45.983887 1.5280151 132.93933
-65.677666 -19.909607 304.92987
-52.133652 -3.2896729 69.342773
-84.694656 -38.434448 -0.22338867
29.524658 38.110107 302.90369
3.1991882 -7.1558228 190.65265
-18.363663 -13.507812 193.28918
-31.145416 -8.8937988 189.80734
-33.745972 -18.380981 86.634766
42.704544 -3.9669189 24.080536
-45.322449 -30.187439 4.7288818
-10.639786 -16.970642 47.355774
42.311005 -2.1485596 45.960571
-20.818161 -21.239502 304.8136
59.642609 19.25708 249.60138
-83.135941 -38.480347 304.68811
27.357803 -10.195923 177.67993
-3.2971191 -24.171875 56.167297
-7.1436462 -12.057556 114.36719
9.6261902 -7.7045288 162.35986
60.494431 14.768555 148.48065
-48.185425 -2.1333618 160.68884
61.634689 21.752747 174.66574
40.786972 5.819458 169.6517
-88.699326 -33.700256 304.92966
-8.371109 -25.821838 42.845123
-41.541229 -22.35376 26.228729
-19.094925 -9.7418213 231.83374
-48.423401 -3.0449219 152.45941
-33.076874 -2.8007202 235.26172
21.630066 -14.251282 304.70435
4.4259338 -12.385193 83.694672
-9.7041626 -24.7276 58.633606
-15.716583 -24.310486 64.016815
69.24852 19.939758 276.21368
-63.950241 -8.2545776 22.559814
38.652863 4.1729126 85.947815
-41.196053 1.3241577 226.01273
0.89001465 38.090515 -1.1801758
-39.76796 0.84112549 229.9631
62.984253 19.268494 148.52795
60.696457 13.5755 209.60205
-49.541977 1.5570679 119.85977
38.533325 4.2832031 145.13861
-23.929398 -7.4129028 145.45557
18.664597 18.538574 4.3796997
-37.0979 -0.76275635 160.32727
55.100067 6.6183472 16.312073
-75.671608 -13.709473 304.95004
-19.634552 -8.1704102 246.29553
51.72998 18.729858 5.288208
-55.408417 -20.183228 304.90103
30.719635 -7.0612183 290.53644
21.440094 -29.978149 4.3103638
-44.358917 -8.2540894 62.647034
-34.583817 4.8969727 223.29596
35.540588 24.528442 304.67078
10.662018 -7.3779297 166.94461
47.514191 -38.127014 300.28195
37.888062 3.737915 140.86014
-26.806747 -5.2191772 159.65378
-31.002258 -3.7069092 237.57758
-8.7719421 -8.2384644 283.77457
-28.368774 -14.872253 52.663635
26.264557 -3.4735107 103.19052
-9.9019165 -28.796509 12.008057
29.3013 -11.839294 48.757019
24.167694 -5.0658569 79.280487
-46.953903 -3.7123413 155.50446
-14.167847 -11.917358 112.49942
34.176666 2.9008179 252.56442
-12.571686 37.926208 304.00757
34.062805 -7.5494385 80.499634
-37.035599 1.3866577 180.24103
0.23268127 -12.587769 5.1051025
-27.974121 -5.7794189 149.47037
-32.739136 -12.003174 152.26913
-19.002487 -24.613708 56.039368
-17.556931 -15.906921 167.64526
-27.407898 -27.205688 18.674988
-22.828308 -10.390686 114.45953
16.036163 -1.6047974 277.3187
15.636826 -19.794189 39.706116
-61.346169 -12.643921 304.86591
58.677475 17.898254 304.63058
4.0845032 -13.208862 69.075745
-33.115707 -0.5111084 254.96143
56.410828 11.068604 125.77383
-43.108017 -38.500732 296.85129
26.442947 -0.55078125 304.65689
30.403625 28.88623 4.3393555
8.8565369 -16.764832 164.75031
26.433929 -12.297974 80.666931
-38.475555 6.1765137 214.95782
15.375504 -16.718384 118.19666
-43.738007 -15.711121 73.006958
46.068832 1.5770264 61.641174
-30.180939 -3.8364868 160.94208
-36.874786 37.931335 300.25452
-2.9940796 -6.4125366 204.95538
6.4353333 -17.822021 149.99512
-11.821381 -25.36499 304.72095
-12.029099 -7.8518066 170.4408
24.20929 31.673706 304.74463
12.421509 -20.107239 54.723511
-50.630722 -29.866394 304.80432
67.725571 24.200989 266.49332
50.256683 11.950562 275.0799
1.1799927 -1.5629272 282.47357
-23.688141 9.3150024 304.84662
52.433044 11.851624 13.569946
18.931 -10.514648 31.617615
5.2211151 -11.703918 93.814178
11.169891 -4.7254639 223.68442
-21.415863 -18.872925 25.86087
38.618988 4.1895142 107.62192
60.476288 5.3325806 304.56329
-25.435837 -4.4346924 257.53665
-43.507942 -4.8947144 94.613708
49.088379 12.604309 99.13736
-47.06028 10.121277 201.15863
-29.791351 0.79553223 207.73392
33.618683 0.54608154 81.212494
32.533951 -0.5123291 67.440735
61.0616 22.773926 292.86475
-55.152328 -3.8869019 110.06421
-61.670898 -22.264709 4.7910767
-12.059937 15.180359 4.446106
-8.8565674 38.042297 297.13745
45.192871 0.60400391 171.81699
0.78018188 -32.193298 304.65759
23.112976 -10.640442 229.45798
10.724091 -16.555481 155.80429
-50.325882 -9.9299927 9.746582
-34.630081 1.0907593 188.92322
-20.228394 -6.293335 169.44653
-7.0683136 6.4636841 304.80392
-29.981705 33.973633 4.5062256
23.111389 -2.9245605 304.66199
0.41766357 -19.830383 126.01453
23.555847 -3.4438477 162.68222
60.263458 14.22937 33.932129
-65.080505 -38.407288 301.78229
18.439484 -4.0706787 201.24884
68.163666 23.498169 260.46759
5.0261841 -29.157471 6.6564941
24.891052 -2.2263794 196.35864
-1.5737 -11.876038 255.77713
-86.836823 -28.329041 4.4839478
-51.308487 -7.3397827 42.512817
54.903442 -26.512268 304.60028
14.130234 -3.331604 245.14127
61.365845 20.79657 141.42328
-21.658035 -16.005737 52.497101
-41.855453 -3.1046753 117.55579
-29.886459 -11.991821 5.0310059
-38.19043 -1.2039185 151.28238
70.073166 21.158997 279.48596
58.049484 38.115417 304.18433
23.354034 3.119751 4.4204712
32.431732 36.882141 304.6861
-63.449265 -8.5987549 34.581543
4.4086304 -1.7323608 283.69809
16.803253 -18.044861 60.77121
-53.583755 7.0405884 144.8273
-62.697479 -10.91864 23.016785
34.952789 -6.0325928 186.29071
-31.24881 -15.44281 125.04855
16.980225 -17.975586 63.09021
-8.7567444 -13.992065 85.194916
-61.851715 -1.6421509 84.158661
-39.951477 -23.429382 20.25415
17.726776 -0.90899658 286.73114
-49.369385 -15.836609 47.917847
42.130936 -14.624695 4.6418457
53.000427 15.039429 163.2457
34.30481 -9.5526733 34.736816
45.024963 -26.604675 304.61932
14.212372 38.159485 2.0510254
-6.6264191 -36.833557 304.75488
-73.51741 -2.0985107 4.4019775
-35.91272 -21.305115 52.252167
35.922058 -4.640564 257.13474
-53.539581 2.1900024 104.71933
27.89386 -9.7713623 192.22772
0.75177002 -26.70697 16.964752
-9.6647644 -6.7495728 189.66931
15.475906 -5.0036621 197.18964
55.732773 17.617981 36.01239
56.403564 10.485535 166.34674
-80.539169 -20.321594 4.4782104
19.222046 -10.020203 289.71628
-22.92984 -18.267944 124.19272
50.353592 -8.005188 304.63135
60.249756 15.787781 86.916046
34.894272 -7.3249512 63.210266
-9.3601074 -3.5005493 233.92639
-6.2743988 -15.753235 6.1689453
20.044342 -3.9595947 194.82104
-67.066002 8.2767334 297.1734
-62.897079 -2.8486328 69.331451
38.530945 4.5130005 198.48901
55.242615 -28.571655 2.8115234
-0.33006287 -15.445679 304.77448
11.387268 -14.615295 23.072754
52.712372 -26.026611 304.60397
-11.644867 -6.1483765 194.8985
-33.793457 1.2629395 265.73016
71.443008 5.3606567 304.52829
62.622498 20.320007 152.50098
63.22316 24.097534 22.391754
58.234894 19.715637 166.86368
2.7441101 -6.5994873 202.57294
53.294388 15.363159 38.112122
-1.8471527 -4.4063721 235.27493
-11.012894 -14.548889 77.740448
14.075287 -7.4849854 140.05591
-30.025131 -5.8930054 140.20557
-40.485664 1.3325806 162.98853
-10.259811 -11.835449 238.00302
-42.80629 -0.91113281 199.35748
-17.885681 -8.9945679 244.32199
-2.8959808 -3.6896973 245.49036
-43.522781 13.084839 243.89496
-53.00415 -9.425415 18.102203
12.007141 -10.653687 281.72034
-31.94725 -4.5941772 146.20779
-52.212982 5.5872803 138.36829
-7.9504395 -14.990845 69.511841
17.590836 -12.148132 230.87531
-29.163651 -5.9946899 226.25049
-42.221619 0.27526855 211.16229
34.721878 1.973877 167.16412
5.0626831 -12.09259 85.886597
10.580566 -12.817993 239.23282
-30.089203 -16.417542 120.80347
-0.97261047 -11.453735 292.30664
-24.769958 1.5756836 237.80121
56.270111 6.8798828 11.105591
-8.5271606 -13.515137 91.641632
-15.279541 -14.91864 71.089569
53.220291 14.127136 253.7283
-61.364914 -22.749023 304.86261
-54.152786 2.239502 160.06726
-21.799042 -11.242737 107.14554
-21.33812 -4.1200562 279.36853
-39.977173 -10.277527 61.313782
60.451996 29.210693 304.64526
23.427902 -12.284729 161.97482
-47.302979 -8.1408081 52.282104
-5.7839661 -14.215393 79.01535
61.414597 15.801086 37.873047
-12.470184 -11.873474 295.0275
-4.2227478 -21.072205 111.00732
-41.881516 -4.5193481 105.26355
9.2613525 -11.941223 65.2117
-55.672897 1.229187 86.952362
-37.165665 0.087890625 4.510376
36.039886 1.6432495 55.658539
31.853455 1.0790405 213.93451
-31.052261 -32.371094 5.2523193
-28.766663 4.8639526 251.08606
40.000443 37.514709 304.64954
-13.993164 -25.704773 304.71454
-25.481384 4.1134033 259.66312
15.522415 -16.862427 109.90002
-8.3908844 -16.24646 181.8241
-61.665482 0.15985107 68.760651
3.2688141 0.23358154 4.4108887
33.797333 -6.4440308 202.31638
-37.486206 -5.5903931 188.90479
-50.74675 -16.755249 36.035736
26.706467 -16.51062 13.602966
36.506226 2.6878052 104.9985
15.704834 -18.81427 55.509369
-47.668732 -25.109009 304.79837
-14.951019 -17.648865 152.48602
69.996033 21.627991 274.69449
63.401108 -14.332031 1.8242188
-18.439499 -28.026917 20.338196
-57.506332 -12.80072 34.766632
46.870468 10.051697 180.30737
41.362518 6.2462158 116.47607
-7.0586548 -17.597839 7.6751709
17.613907 -12.272461 223.09045
-62.884689 -2.4110718 48.269867
-8.3496399 -15.944336 56.881226
-43.896515 -7.1004028 74.099396
21.520477 -14.030518 124.3577
-4.27565 -24.294189 57.993591
-15.296478 -38.321472 298.38177
67.334274 21.787598 235.02795
-53.082077 -13.00116 53.794006
-28.853455 -37.483032 4.3560181
-43.692093 37.900879 303.63165
27.909286 -0.16943359 232.58408
59.533524 11.049805 271.78357
-25.098846 -7.7014771 227.97586
30.156311 -19.494629 5.8099976
6.8296967 -1.831665 283.39194
-11.044586 -26.210022 40.141266
-54.258087 1.4801636 95.758881
-51.271301 -3.9580688 130.1124
-14.8452 -4.6290894 205.86942
51.996246 5.2755737 272.52515
17.697952 -18.610046 44.21579
-19.889984 4.2833862 286.04977
-43.587952 37.886414 298.10938
-24.511292 -20.815002 91.182465
-46.741486 18.925415 294.66803
-8.9435883 -17.111084 171.12625
-9.4229736 -4.5443726 220.47302
30.020172 -8.3461304 205.22223
-60.945175 -6.9632568 58.700806
-59.346481 -4.2817993 84.297394
-42.814285 -6.4140625 154.78503
-60.967316 -8.5453491 304.8627
27.53801 -1.9921875 148.97025
19.226929 -15.510742 105.77866
-32.710068 -10.187317 87.174805
-34.313416 -15.012756 37.997864
31.225494 11.794556 4.3463135
31.857681 -6.8171387 241.03955
-11.320343 -26.838867 33.536926
-41.93129 16.056763 277.60272
5.776474 -13.626282 54.907715
-40.375381 -14.901733 21.439301
-63.369736 -8.0298462 39.069946
-7.5361328 -1.8967285 259.64349
-2.1023865 -27.374634 17.897797
-39.21756 14.217834 277.04126
-15.579697 -19.051453 27.422333
-33.721924 -1.6408691 241.91391
16.222839 -21.499023 17.663605
36.687653 3.4519043 205.38916
-42.952286 9.5061646 277.64194
-53.055641 -6.2675781 304.84186
25.829315 -0.58276367 243.83307
53.24353 6.1569824 254.9054
-9.2004395 -16.318909 304.78711
-41.928558 -2.2028809 193.84753
25.968323 -5.0599365 54.287384
45.12822 0.56115723 256.79321
20.579803 -12.724426 183.11279
19.867859 -5.3800049 144.49265
3.3866882 -14.181641 222.31879
52.202179 6.4024048 181.22495
-10.098267 -12.616882 228.68738
26.005493 -11.000244 162.01624
31.968811 -10.813293 36.907227
-13.205505 -6.4859009 186.41061
39.767334 14.065552 4.3423462
1.5335846 -2.8040771 263.63794
-24.430618 -26.751587 27.378326
34.311584 38.223511 1.2126465
30.2901 -10.015137 84.03244
-21.29129 -27.940063 19.055359
-61.52211 -0.43328857 58.481445
15.496506 -4.428772 212.65533
54.861755 38.16571 303.47937
-41.738251 -38.23053 -3.4971313
20.203522 -14.995422 110.07397
-54.648346 -11.831543 54.440338
-38.424454 -5.5921021 184.37738
67.166748 18.121582 275.22498
46.29361 -33.110535 4.0976562
-49.800888 -4.0900879 5.0629272
2.0690613 -11.421631 112.19794
47.286926 2.2600708 182.01395
-46.45961 -9.8001709 108.33771
-23.67099 -8.9238892 222.46805
70.570114 22.811646 284.3447
27.470215 -3.7895508 60.859619
30.637756 -1.0546875 102.57025
2.2342682 -16.167236 35.686981
4.295166 -19.991577 111.44778
-17.35878 -16.542236 51.323029
-18.129791 -19.005615 26.882385
15.084717 -19.320618 52.579254
16.905029 3.5166016 4.3822632
7.1102905 -12.438171 68.343384
-25.127426 1.9691772 239.95032
45.612396 0.86126709 238.82825
-11.159622 -16.325684 176.13452
34.795868 -6.7871704 91.032135
35.117706 -14.136047 7.2385864
49.046265 3.277832 241.25186
24.281799 -6.2976074 7.1477661
58.024353 7.861145 291.78036
-30.227158 -0.81817627 190.56177
66.383514 0.68341064 304.5253
-1.1756897 -1.0161133 286.14795
21.287216 -2.430481 229.43649
38.195099 1.6235962 32.811462
48.008728 0.26654053 19.828888
6.681488 -12.189697 257.82443
32.334335 0.31848145 127.27313
-24.528214 -12.914978 304.83087
46.681763 2.475647 66.05838
-43.765564 -12.570312 98.988556
45.852448 9.8459473 94.755371
24.793671 -13.825073 68.621185
63.643188 16.784119 194.57275
45.827682 1.0461426 230.58215
-36.27533 -5.397583 304.86453
-35.164673 -8.1115723 178.18402
-71.215088 2.2568359 3.3622437
23.223343 -11.804504 185.71576
45.200562 0.25811768 47.821289
-47.285553 -4.0964966 84.752533
47.358353 2.7452393 128.98428
-2.7262726 -8.1400146 176.51468
-36.537994 3.9672241 205.4664
-7.3019714 -26.491882 34.53656
-4.5897675 -11.373352 292.99207
-18.747467 -1.0665283 234.07761
-15.876694 -20.813782 107.60974
-35.173431 -1.1712646 165.09286
-54.009552 30.982361 297.38354
50.139832 13.650513 83.940338
39.056625 5.2821655 254.38025
10.841766 -17.149536 140.24158
-8.2167816 31.491028 304.7771
-5.4108276 -6.5808105 199.62796
14.601639 -5.7119141 184.45441
-33.521713 -10.245789 4.8753662
61.397659 21.237488 154.51544
-45.16391 -21.620728 18.700104
-79.524826 -12.201233 -2.6330566
11.866058 -36.951233 304.70053
-26.147324 6.8847046 282.61023
-61.181976 -11.772278 25.11557
63.418274 16.516602 196.69946
-42.071793 15.474426 271.42868
44.575882 -6.5436401 304.63062
45.535675 1.5918579 90.324493
-37.565536 -14.371033 109.74283
16.408447 -3.8261108 223.82684
-59.083954 1.0275269 118.89597
56.247467 18.406799 142.78058
-6.1251526 -25.455505 46.398956
11.366745 -17.786072 123.28372
-43.313675 1.8201294 153.59222
-36.708435 -5.2791138 119.89124
-24.977158 -15.657593 51.020752
-32.907684 8.4765625 263.39868
-10.999359 -23.377502 304.73022
-38.845917 -38.297363 -1.5325928
-28.548248 -0.90216064 274.72519
61.486862 17.338501 61.335144
6.0915527 -20.849365 84.33844
-50.69693 -17.648621 29.423157
5.4998627 -17.555237 158.21307
-0.10968018 25.94574 304.75568
-55.631546 23.86499 4.5534668
-65.958969 -27.604736 4.4520874
-40.289093 10.304504 239.36053
-16.929688 -6.434082 4.4790649
-10.213196 -10.331787 255.03659
6.0982971 -19.53009 110.15891
-1.9415588 -12.77179 241.39246
2.3471985 -27.72937 304.6853
-36.575302 -5.5140991 194.19785
-51.320679 -6.0092163 52.295013
-51.250748 -10.524902 15.99646
15.228729 -5.7306519 179.05713
-35.360855 -22.654297 41.883911
25.526642 -7.5738525 26.403046
12.427124 -13.561584 30.495819
-0.91285706 -9.7332153 148.43826
-19.661987 -6.9938354 258.64639
50.655212 13.768677 115.9361
-24.847122 -16.331116 140.59088
-44.510529 -3.8648071 98.862396
-52.48587 9.1578979 176.15952
5.4342651 12.374817 304.72937
-20.089035 -6.6231689 165.93719
10.10434 32.881165 304.77899
50.957474 12.242493 30.119629
35.116638 -12.751648 8.7374878
49.048996 4.6033936 69.178802
57.487579 20.294373 103.36044
89.744507 30.433655 300.93842
-2.3277283 -24.968933 44.102539
-55.88559 3.2964478 154.69278
-25.112946 -8.7571411 126.66101
-14.940598 -18.944702 135.39319
-3.5376282 -16.363342 6.8974609
34.441956 -8.2421875 47.303101
-65.162216 11.559204 303.39352
-0.71922302 -0.75769043 288.8989
-19.495056 -11.109131 215.58606
-15.892822 -12.608765 211.52975
61.337006 24.626892 304.58899
-17.874756 -10.332703 127.01141
59.720032 -17.82489 4.1272583
53.616196 8.9046021 76.315033
-48.014603 -38.209656 -3.680542
0.13458252 -22.31781 80.804718
-9.2192841 -30.735779 7.7249756
70.429825 21.887512 281.823
-26.033493 -4.8890991 166.02795
16.332016 -12.448975 227.82141
