# .PCD v0.7 - Point Cloud Data file format
VERSION 0.7
FIELDS x y z
SIZE 4 4 4
TYPE F F F
COUNT 1 1 1
WIDTH 1543
HEIGHT 1
VIEWPOINT 0 0 0 1 0 0 0
POINTS 1543
DATA ascii
12.324861 -9.3787823 102.6539
62.233112 17.337717 120.89162
-13.137548 27.670189 305.22504
-46.389931 9.9653683 293.38757
17.75387 -11.903306 25.614254
61.481297 13.328382 248.43588
-8.5822105 -21.279184 106.03745
-22.776548 2.8251731 257.23981
-51.66486 -38.100002 302.22726
-4.2649364 -12.370894 242.40918
34.992401 7.0907197 4.3343153
41.125782 16.06045 4.2249999
26.382414 -5.9620333 40.143761
-52.201706 -19.144644 9.4599056
-8.7943687 -3.2412474 237.23532
-6.8910971 -3.6908815 235.78949
-9.7470846 -27.790234 22.929031
35.904205 -0.94068456 9.2127342
-19.336163 16.583334 296.22498
29.079906 13.229755 4.2249999
8.0708332 -33.806057 -32.742569
42.821587 -1.1296505 86.898453
42.373753 7.344079 277.06146
-4.5260143 18.958927 305.22501
69.568733 -4.4945831 4.0721035
75.413338 19.837503 295.12482
14.782874 -15.791861 147.04083
-17.228172 13.607176 -33.193356
-20.852274 -26.733978 31.575808
-8.7694826 -15.582514 189.09882
34.082047 -5.0510311 288.31497
37.08308 10.413035 295.07275
63.208275 15.465404 224.215
29.843819 -15.960466 9.8317394
-25.27277 31.932196 296.22501
8.0846853 22.245258 296.22498
29.645845 1.8337983 282.00418
45.930187 9.5874758 77.792297
3.7875729 -7.2092094 187.29016
11.993969 -10.246361 83.565849
-52.456528 -7.07444 97.243896
50.513878 4.442523 219.10387
-91.190361 -38.03466 296.22501
-36.441029 -14.221492 35.907486
-72.415863 -34.295212 296.22501
-13.424726 -7.2469645 278.90488
-58.81308 -13.327305 296.22501
1.0680888 -5.6712356 216.32861
18.528931 -18.343422 45.184471
24.813501 -9.4511414 245.13629
-33.848442 -0.81952429 247.01297
-49.100552 7.4047155 224.87991
-18.531036 -8.7064552 142.5764
-18.183331 -17.862717 35.809692
22.873215 -12.225761 171.73315
14.587205 -17.669104 95.78421
5.5306931 36.250416 305.22501
68.549896 33.344166 305.22498
16.605518 0.88803482 305.22501
33.958839 -16.796173 -31.289734
-45.917946 -7.6112375 126.60396
19.889706 -31.810326 296.22501
59.194324 14.149012 -4.7749996
18.60915 -7.4806752 89.187927
-8.2915134 -16.705914 174.39983
-41.861015 -22.764719 17.159962
30.799971 -22.010269 -19.340454
30.738554 0.81465459 219.2446
17.721304 37.714493 305.22501
-8.0884018 -11.937833 113.27347
-71.358261 -3.1856003 -4.7749996
69.520149 2.1347389 -4.7749996
-56.085224 13.274028 -4.7749996
9.6631479 -5.6087017 206.08344
63.166725 20.780956 164.12825
56.149376 9.9890118 165.60114
-48.578941 5.9136877 216.60632
94.060059 37.92564 296.6413
46.613884 -6.724225 -4.7749996
-50.070923 26.173378 4.2249999
-9.1743393 -11.491202 119.86379
15.255713 -21.591246 24.676311
-2.0833905 -26.42935 28.532642
-16.800655 -3.6330724 208.35059
-32.266605 -17.636255 15.617516
-3.636586 -31.916832 -5.4047966
-23.460112 -20.870819 89.826599
-25.837374 -2.0901017 276.94482
-7.9166536 -29.921005 -24.260025
-37.613888 -8.3309288 83.441475
-45.906704 11.118187 270.79761
0.2265954 28.275478 -4.7749991
-45.567951 0.69927162 194.72411
-13.12714 7.1661763 295.03931
34.535027 7.7605376 -36.509453
11.71574 38.100002 304.0997
18.468519 -11.372667 240.6925
4.0697932 -19.987244 109.32006
-46.954323 1.0599395 125.00272
-15.925201 -14.810384 182.43138
5.9426012 25.783226 -44.775002
-49.029251 -2.9472876 81.631538
32.376556 32.919308 -4.7750001
64.726532 -12.881533 1.2770132
-43.411831 8.1603489 264.48801
-32.306904 2.4047351 282.80481
-56.857658 -0.48310667 121.81146
17.967272 -31.759876 -20.759251
-55.223476 -38.100002 3.1447365
47.55088 10.463798 51.838634
8.0802135 -16.170845 175.96425
-54.248402 1.134726 148.07397
21.847038 -9.392457 271.35095
7.1754322 -33.584167 305.22504
-72.823921 -32.004272 4.2249994
32.727402 -8.477931 88.868874
-45.447777 7.5186925 185.51294
-30.089787 38.100002 302.01535
-13.440124 -20.326508 116.42384
-46.62093 -15.286064 60.930405
-43.522701 15.637487 265.77643
-25.134338 -6.9816113 143.05325
-42.025894 -9.5988398 129.38829
-15.42265 -9.3372965 248.35849
22.174767 -11.815895 195.57733
13.473913 25.304628 -29.809586
41.215649 27.551748 296.22498
-2.0612161 5.5881019 -44.775002
66.680931 8.0852613 295.83932
-10.078098 -12.943153 98.132935
62.692661 14.685767 21.671299
-54.886608 4.6995773 -4.7749996
29.233528 -6.8550353 282.68994
29.128349 -24.033661 -23.657061
22.645588 21.626648 -27.376293
-12.248507 -15.856628 58.258507
5.1511745 -18.7104 131.9648
17.179039 -32.111843 -28.56435
75.595116 24.076271 295.10181
29.752777 17.638771 296.22498
-59.858528 21.313154 296.3649
-75.063522 -22.628345 296.22501
-40.955315 -2.7441311 121.11411
19.489502 -13.361794 175.53156
-21.457382 5.376658 -22.138821
50.50692 12.810345 175.91382
59.060448 19.624344 9.1874619
24.080469 20.621935 -26.447386
32.727551 1.2440945 189.98251
11.300678 25.723482 -5.4618502
-22.873594 -5.3785944 -31.728769
-21.883501 -11.586354 -33.862217
-46.160954 35.697395 296.22501
47.833179 10.891971 149.71837
11.814606 -17.844028 116.3401
16.929379 -18.364412 56.085606
-38.43309 -11.15219 55.565338
-36.598694 8.565136 4.2249999
-46.988861 -5.5385823 69.547661
20.434654 22.313828 305.22501
49.224243 9.2497873 22.244574
34.853348 2.7943039 223.56592
82.833519 38.100002 299.98318
-10.751779 6.2732115 4.2249999
-6.1932974 -1.0781617 272.50787
-15.885032 15.797645 4.2249999
32.027611 -8.6408882 109.74662
-29.416897 -3.8411674 242.98923
43.792408 -37.689465 -4.7749996
37.046242 37.09877 296.22501
-26.459621 3.3356748 245.09479
82.403381 29.801247 4.2249999
9.3629799 0.89600289 293.04214
49.050224 11.431042 202.2177
63.332222 38.100002 1.0971135
14.991681 -1.2608129 285.84662
-24.269587 -3.9947999 265.98697
-31.236961 -5.6725154 217.11342
51.575333 12.942551 262.409
58.61092 18.476313 244.63719
-47.489643 11.785122 258.96082
25.302608 -12.823684 96.618057
80.927498 38.100006 -1.854522
-81.229347 -37.687286 305.22501
-27.433542 -33.702747 4.7978506
42.509949 6.944416 204.71466
-59.136898 2.9044473 89.77388
-10.922746 -9.254056 150.73746
10.455954 25.797386 -14.287179
-39.506958 21.60984 295.08136
-59.334572 21.356174 305.22501
60.42939 12.674116 232.00346
-40.229584 -11.796095 118.87855
-46.239258 -9.7736177 107.28381
-49.480999 9.8165035 295.25
79.140396 31.54402 305.22498
44.806759 -13.489416 4.4653559
13.209553 11.915651 296.22498
39.495411 -6.6937304 294.33881
-54.779625 -27.430048 305.22504
51.855835 13.10872 287.23303
34.126884 -16.435801 -35.590797
56.299416 16.224476 281.3645
59.230309 19.643066 208.73933
-65.135056 12.173939 304.3652
-17.024273 2.9295611 282.5675
-61.26976 -0.40200895 89.10569
-22.905844 -5.9138365 162.74138
-37.592186 34.322037 -4.7749996
23.274279 -2.2828026 209.61024
-39.759186 34.58704 296.22501
2.6748259 -23.679459 48.968796
-12.395897 -2.1207654 -44.775002
-44.9501 -26.068146 296.22501
-10.79132 5.4642854 -44.775002
64.787407 10.228646 294.44531
64.718468 -1.2319725 4.2249999
30.984316 -12.640721 29.492382
-43.135414 -6.2720585 80.484222
37.393517 -4.4036551 214.67189
-25.661564 -1.9888604 278.7431
-45.247513 11.301846 276.64505
-30.91847 10.537649 4.2250004
-30.890417 1.7651587 208.99301
-39.277744 -2.4756174 131.09523
24.82712 36.208519 305.22498
34.218582 -6.9957438 132.76334
16.796259 13.425293 4.2249999
-40.93066 7.0665593 270.87964
45.766655 0.94157499 242.10182
-25.045351 -11.522884 4.4251695
-28.931705 -14.392963 296.22501
-22.58894 -8.15376 -44.775002
-29.190868 -1.1401864 268.54605
26.570753 -2.6114042 139.15622
43.900932 7.9536867 109.17922
43.721539 -0.23031372 287.90445
20.114698 -7.1004019 81.413666
-65.737503 -22.671476 296.22501
61.252522 -9.6358118 296.22501
46.832031 1.7166824 228.51944
19.731583 38.100002 0.85965133
-60.393143 19.880556 305.22501
-14.482244 -12.191071 -44.775002
29.358522 -6.7296329 285.65228
39.290127 0.9755441 10.234194
-8.5717373 -27.594154 24.245541
-9.8459301 36.303642 296.22498
59.728477 14.836215 92.242851
46.97403 2.0152342 57.513664
61.322132 16.434809 57.797417
19.220596 -1.7004249 259.17404
-30.486187 -3.9757299 154.84221
42.601044 6.8138871 75.120804
-36.288982 -12.519247 129.9816
37.097492 20.795382 -4.7749996
33.323917 -7.6888561 118.57394
-48.835915 -8.0419397 43.067005
21.525343 -30.100719 -8.9421425
-40.403248 38.100002 296.46045
34.50124 -6.7904482 135.23053
-56.670818 4.5122662 106.41676
33.650799 0.55331159 87.591049
19.824657 -11.796679 11.712614
48.811928 38.100002 301.60135
51.988319 6.1486053 46.982548
2.1127362 28.020674 -4.7749996
-44.650154 -1.0110245 118.14233
20.940331 -17.603472 39.3423
47.335312 10.181654 259.94159
48.202408 3.1188042 157.9559
-62.734001 -13.360942 8.3838491
37.603951 -22.092648 4.2249999
-2.6684978 24.450224 -9.707242
65.553696 16.280613 11.272017
23.891478 26.813217 -4.7749996
35.27113 -5.9946604 176.43173
-41.018394 -18.666155 55.680229
2.9819059 25.748722 -17.777849
-47.692905 11.437267 293.64178
-31.947964 10.000168 280.06384
-3.3200753 -20.982399 108.24622
39.047016 -6.7145619 30.943993
-14.568935 -37.328846 296.22501
-21.838974 -4.0535655 187.39755
-8.1289701 21.992527 -7.0378904
-43.650696 4.277844 233.3425
-45.966621 13.57865 277.33557
43.145653 -38.100002 -0.29754913
-43.244373 -6.4335775 78.653633
-1.5444721 -20.655907 111.96422
20.763586 -9.3789768 278.79868
-0.20732152 -21.449461 94.302185
-32.124573 -4.9755006 305.22501
13.905781 25.18891 -23.147341
-46.015602 2.9820106 209.34424
56.470181 -4.4277534 -4.7749996
-37.288586 14.100847 285.04843
-3.8963587 -23.773512 63.887672
-5.8173084 -20.669754 115.7333
-36.984169 -38.100002 298.42111
76.089661 10.560782 -4.7749996
-24.504265 -6.3848419 294.53534
-62.275696 -4.8999124 26.935612
-46.02977 1.3992987 -4.7749996
68.579941 24.734867 282.52371
-28.625515 25.997663 4.2249999
57.82444 19.606613 143.7494
42.2892 30.181667 -4.7749996
-59.497375 -4.0104628 82.422791
60.240406 21.067024 141.43387
10.195 -8.3254356 143.89922
-44.97908 -13.143308 -4.7749996
34.89016 -7.5737305 65.642326
6.6854248 15.567174 -44.775002
51.631775 -18.49531 305.22501
-34.596756 32.05785 4.2249999
-13.674922 -18.124887 34.900337
35.677128 2.9400034 202.28812
-53.289528 -13.496387 45.784042
62.405052 17.254503 49.088127
47.493492 34.000565 296.22501
6.0794373 36.262772 4.2249999
14.258287 -5.0723271 201.72865
30.372585 -31.597784 296.22501
25.732334 0.9176259 4.302453
-4.6193476 -10.673573 265.08521
-24.818432 -27.834291 12.676105
52.658733 -21.31151 4.2249999
45.729057 1.0472426 62.275089
-52.282543 8.7396755 163.03716
44.754997 0.41530895 272.13947
16.357418 -14.728055 164.20358
-34.1269 1.601337 266.13757
-64.625603 13.056339 -3.8100069
3.6688118 -2.5933976 267.47937
-55.630104 -17.82036 8.5125351
-22.959602 -3.4044714 -32.716164
-49.458744 -28.427307 305.22501
5.5091305 21.873243 305.22501
-2.1318574 -29.787468 7.8243823
24.021713 38.100002 2.5925887
45.376724 8.8813334 198.27921
-29.088875 -14.546912 51.220688
43.712688 7.7622423 231.13245
57.512344 19.425169 138.06265
11.226912 -4.5021696 225.04326
39.73819 4.0242853 52.974602
63.449097 -15.094101 302.42227
23.468319 -11.261555 305.22501
2.1569786 -3.1536636 305.22501
40.648804 -2.4328361 206.87994
-9.2542133 -29.004623 -41.605412
-60.053959 -38.100002 303.03729
33.251648 1.2421916 171.70522
-57.64864 -8.887022 58.073208
58.870178 13.630684 54.482399
-28.851343 -26.063354 25.165287
-76.439758 -37.518204 4.2249999
-70.534523 -33.637566 -4.7749996
15.211193 -16.220432 131.14252
50.85387 7.5529957 -4.7749996
2.148989 -30.219074 6.5489559
39.43259 -6.9624143 25.507332
-25.044498 -2.0647614 280.90857
13.459487 25.308493 -36.441616
51.528072 28.430527 305.22504
-8.6295319 -14.49541 305.22501
38.486996 -7.3302264 29.23439
-11.324487 -9.7162991 292.90799
52.215042 38.100006 297.9447
-64.987465 -38.100002 303.68811
51.711197 2.5740945 14.724569
8.6035528 -8.0971537 157.1561
-38.212093 -7.0490718 92.764214
34.2164 -20.06757 296.22501
-49.918053 -1.2719846 91.362488
38.360832 -21.689047 296.22501
-21.691698 -12.302176 -18.035183
39.872967 -3.1968622 140.7135
41.388214 5.5728021 59.372688
54.926865 17.501289 107.45564
31.508553 22.953358 296.22498
5.9342875 -3.1296101 259.59766
-7.4878159 -26.01659 -44.775002
-20.601515 -5.6791344 266.60339
23.157934 -12.37349 161.41209
22.008488 -10.91725 226.35834
-43.492405 -13.264066 21.323044
46.381477 -38.100002 -4.76088
36.763741 18.786194 305.22501
-26.767212 -0.93767387 282.83188
34.809864 -38.100002 -4.016088
-71.936111 -15.179356 -4.7749996
-16.230278 -13.831047 193.38266
-10.494264 20.336329 -39.14325
-61.315258 -4.5524101 69.599159
49.815941 0.47016129 293.37573
-69.085045 -15.829784 -4.7749996
28.009794 9.297965 295.98154
-37.707058 6.3341823 284.44321
13.298957 -18.56757 85.39563
-47.903561 11.603744 206.44658
53.809029 14.845005 231.04817
-61.71204 -0.52137613 57.416752
-26.662994 -10.425396 305.22501
-29.550583 -26.169096 22.682556
-23.149876 4.9856467 277.38147
44.929237 18.463362 -4.7749996
0.3551524 -21.539942 91.524872
48.228096 3.526535 104.46867
66.888504 19.905432 25.070456
5.7206516 -11.949875 259.12775
-20.305967 -20.29752 104.04507
-13.674585 -18.313284 142.69876
13.473583 -3.0096424 4.2249999
25.823538 26.873409 305.22501
58.33403 19.018698 29.52273
49.546871 3.6351292 235.32242
23.745165 -11.713652 178.33652
-29.284412 -11.828986 166.94702
-17.207954 -4.7721834 305.22501
52.641479 15.444406 63.561665
-34.40937 34.442711 -4.7749996
-45.141178 17.258396 291.62192
50.894913 11.011688 23.506027
57.477215 36.737301 4.2249999
43.794762 -0.28189498 129.93924
-49.026863 -11.258469 13.472965
51.667229 14.263161 125.48919
63.632042 15.561879 305.22501
-52.798824 -18.077538 11.090784
-49.562836 20.531569 4.2249999
56.546616 8.9650898 252.38089
-22.678329 -0.18950793 -22.106531
-43.096905 8.0692272 202.94389
28.966881 -7.4952807 262.586
-15.587616 -8.6617584 150.07904
5.9736371 -33.810467 -14.061799
-22.517614 -15.174194 5.732049
28.966419 -9.0915089 193.47899
45.330074 8.8465681 243.80415
29.720303 -6.9288816 273.43408
57.149254 21.214899 294.0481
-45.148048 37.282776 296.22501
66.213394 25.668989 11.631119
-47.716263 -7.8965502 6.2930202
-30.053637 -2.0752242 175.78828
-33.396103 -0.65312147 174.14796
-20.775982 -11.870919 98.631569
-15.624242 -23.543674 -34.296951
7.6357651 2.6652594 4.2249999
-40.260693 26.579165 305.22501
32.059753 -8.8154211 94.8255
-24.923954 17.656708 305.22501
-19.420181 -17.964001 -11.373324
15.740929 -16.270042 124.99352
29.34132 -10.792593 83.355438
-47.051445 -4.9278874 74.162453
-43.686718 -2.882129 106.70008
-32.972595 -3.2328744 -4.7749996
29.630756 -0.36664784 182.20387
-45.423298 -10.239328 39.099323
-51.934093 10.02403 194.44266
-50.709412 8.6487036 219.31564
-30.606833 1.587526 285.06876
29.297264 -1.1604195 144.59715
55.366356 30.586845 -4.7749996
32.52013 0.54580253 146.17189
34.730705 -15.140896 -26.06827
-21.517345 4.2720404 277.74838
-28.714102 8.1469107 280.35071
-53.205784 -8.6214399 19.521694
-33.378689 -17.397911 95.557449
-46.482513 9.2995214 194.28064
-5.9640307 -30.979881 7.0761309
57.462097 11.543495 146.9624
-8.3467274 -7.6290617 178.08655
-12.84015 -25.154428 52.186916
30.199883 -38.100002 -4.0380383
-16.314974 14.911359 -13.61162
-71.5205 1.1140219 305.20233
-39.607128 29.364841 -4.7749996
32.030869 -9.9452553 55.628426
25.453381 -5.3798285 -44.775002
-15.442575 -11.836071 108.79198
-33.058144 3.0758066 305.22501
10.775942 -3.3333507 252.0551
11.73318 -31.891846 296.22498
19.157742 36.333717 4.2249999
-18.663849 -27.468945 25.828474
-30.945232 29.651978 -4.7749996
-15.755999 -4.490324 201.5274
-11.028072 -27.762554 -5.0022984
-6.2610245 -17.740059 161.30701
24.075594 1.9351174 291.80829
-41.076538 2.9285421 169.84598
49.931103 4.9890351 73.367012
-36.16922 11.70058 271.81268
-32.729481 -4.0462222 224.3074
-26.378178 -14.474484 57.711731
41.122017 -37.852352 4.2249999
28.089703 38.100002 4.1992598
58.240936 12.844122 51.723026
-30.831322 -11.902246 159.71468
20.630806 -3.7645497 190.92757
15.658392 -5.3500767 184.02921
19.449497 38.100006 304.72324
-55.666294 20.137756 4.2249999
-6.4205332 -22.151594 -44.775002
-41.156834 -22.647785 21.423868
-62.942265 -7.3707924 17.128111
26.258648 -8.1345549 272.50964
-27.415321 -2.9607959 177.10068
54.09169 16.915569 92.287292
37.332088 7.1157131 305.22501
50.126995 4.2658868 205.88142
73.259781 38.100002 302.27179
-35.37394 -4.8957567 203.20816
17.156731 -12.888897 18.125517
-73.399544 -13.025459 305.22501
-4.7134886 -10.540713 135.42819
15.822556 -10.376315 51.919598
58.446587 20.58621 103.0937
26.322535 38.100002 -2.963985
-22.660271 -7.8168974 -6.9985986
-10.400306 20.402121 -41.135872
-40.29023 3.6464159 180.01152
55.041599 -2.4673347 -4.7749996
42.858871 -0.85021466 246.78682
70.667091 18.883966 292.03668
61.745384 21.585064 223.20941
-48.557491 -38.100002 -4.7677169
36.674526 -10.162012 14.608614
-46.517822 -38.099998 297.89478
-51.20298 -0.21448416 93.094276
83.350632 38.100002 297.56915
-25.998539 -13.786413 65.597198
-6.1962376 -10.442639 136.78253
22.692175 -0.29591537 -44.775002
66.722404 28.204098 305.22501
54.205429 16.025864 159.98471
55.842224 16.394024 232.92334
66.834984 38.100002 297.28867
51.855289 -31.487206 4.2249999
4.9252462 -5.5682049 216.44643
46.337608 9.5016947 233.60004
48.619026 11.722919 126.86446
-52.905106 -23.601057 5.2272515
-29.598589 -14.08852 142.89226
-14.209015 -2.3964751 231.39359
38.128944 -8.8747406 305.22501
9.4885263 17.259609 4.2249999
-40.365437 12.22622 252.21561
60.484787 13.064405 214.75085
25.908234 -8.2445154 10.684542
53.19133 16.062668 68.223679
3.3307509 -33.579243 -13.796545
3.8755004 -21.967062 71.437752
-58.904472 6.1437654 305.22501
-25.698189 3.6592898 252.0472
3.0846536 -17.702579 157.80624
55.115051 7.5242753 278.62561
45.578751 9.0231667 204.34833
22.34264 -8.9222164 280.69949
39.018631 4.6483364 175.25618
-25.370789 -33.809563 4.8860426
43.774643 -0.27536654 248.97455
33.370625 -7.3921614 149.5298
-44.955906 25.557314 4.2250004
-57.842255 -29.956425 4.2249999
-0.13335687 25.129515 -37.309391
35.343456 -13.579781 -7.9461699
-64.643646 1.5526428 296.22501
-14.566395 -3.3618279 218.72884
-15.990501 -5.890708 184.5849
17.349594 -28.804579 4.7111692
-3.405735 31.437508 -4.7749996
-15.07885 38.100002 -2.5347269
51.889343 5.527132 221.52351
8.3443947 -10.433759 104.58251
44.762295 -33.74934 305.22501
-17.135374 -5.2277284 286.99915
53.895836 13.971797 9.7481337
-41.844841 -7.742578 72.793335
-39.561909 -10.15737 5.4273262
-20.813847 -27.624756 -4.7749996
-14.262688 13.999215 305.22501
35.433983 -6.2319193 131.51155
-58.461082 1.1920075 69.64373
8.4560108 -14.678008 205.05106
36.401585 -9.6307888 -27.751404
-1.9810281 24.63443 -29.099737
-30.37991 3.0513029 223.82272
-20.222862 -4.6209669 186.16544
-36.991928 -3.2178876 133.80589
30.576124 -10.800925 305.22501
5.1811318 -9.8572121 131.32416
-55.996452 4.237052 155.49858
-74.156769 -35.84222 -4.7750001
16.979582 -9.0351696 67.806351
57.190712 18.463751 174.55927
0.97244537 -33.225815 -34.807495
45.316429 0.84724051 69.508247
-28.923847 -3.9392419 161.08295
8.1844902 25.996111 -30.140642
35.000397 6.1804309 -44.775002
32.597347 -23.296486 4.3016133
26.408539 -9.2478294 232.21953
12.059172 -23.025547 305.22501
-10.520979 -20.217838 120.99469
45.781937 9.1603584 268.79916
-63.973537 -26.52301 4.2249999
50.804497 38.008858 296.22501
-15.484865 2.6479859 286.12097
-24.593037 28.93082 305.22501
-58.637653 3.2192512 123.24197
6.1677384 28.792004 -4.7749996
-15.828115 -18.681545 133.94064
2.4280126 -12.609577 -44.775002
44.950233 -1.7124777 32.407631
22.475559 21.745703 -29.173672
-44.464897 -10.110096 43.707073
-4.0269814 -3.0475149 250.64001
-29.188841 -9.6812572 188.75688
-7.4511847 -12.416796 105.80769
43.872833 -0.23682234 91.860069
18.025017 -13.379803 188.82555
-49.768593 -35.359158 4.2249999
29.059431 -7.0859156 288.88654
-24.115665 -11.006969 196.81842
47.248058 2.015312 286.06497
-70.808174 -21.79353 305.22501
50.844841 12.437153 279.46475
14.346361 -8.2060337 -44.775002
34.994499 1.688362 110.9116
49.573418 12.027601 179.10284
-44.291477 7.2332444 189.5658
15.044897 -2.0517459 268.02731
-85.068008 -22.350954 -2.128149
35.19157 -6.7981453 92.548355
3.9441431 -11.500874 101.95208
55.201485 10.169408 86.988678
4.8224406 -33.709747 -11.933904
8.4965563 -10.55728 100.62079
-48.533913 4.2498503 204.17584
51.318569 12.753313 275.6684
25.808132 -9.4218712 234.04433
-11.845474 -1.9891887 4.2249999
-59.52869 -18.342295 -4.7749996
74.921928 8.9116249 296.22501
48.445763 2.9039092 219.15994
-26.849707 -10.968075 4.3775606
28.404396 -15.778733 305.22501
-30.280666 -9.5664949 296.22501
8.9628544 -11.103126 273.09671
6.0226145 -2.7004051 266.97745
-93.246452 -36.516426 299.46686
59.204086 13.405568 142.07111
33.968796 -6.9840651 153.63284
-16.422485 -5.7108588 284.20627
-47.552349 1.1927652 186.90831
56.211246 10.131015 160.04289
-50.863869 -11.788847 69.326408
-6.3825254 -2.3873668 -44.775002
10.933681 -4.1717925 -44.775005
65.15139 19.600357 188.51547
3.3359447 -16.739975 175.53867
34.053429 -11.547155 19.299162
14.71083 -18.508503 72.487068
66.796425 22.441633 30.809607
36.002674 -11.119537 -38.970383
-60.479214 1.1718047 99.176826
-40.962021 -17.84709 305.22501
-45.839199 32.223438 296.22501
20.635834 16.0625 -44.775002
35.036137 3.521421 259.12225
-27.109209 35.838417 4.2249999
72.246429 23.982355 292.29547
-35.61549 -0.99995542 235.96008
22.304237 -16.795391 40.376144
17.753578 -38.100002 -2.5226259
-29.981379 31.888556 -4.7749996
-29.364054 -18.922873 94.20993
55.794754 17.987442 46.517944
-49.57943 -5.2874737 296.22501
-62.694748 -12.006428 10.507385
36.842346 5.7187195 290.69647
53.411831 7.0903645 192.5961
42.211338 -4.0779266 31.999628
40.134052 37.84478 296.22498
42.917694 -0.99161685 176.58185
-31.758743 -14.431931 130.8558
73.37207 22.085772 293.27771
9.6149473 -11.797393 259.62802
-10.044311 -8.0618286 282.06415
-37.094013 36.472733 305.22501
49.49601 -1.157402 305.22501
-25.998123 -9.337265 205.63466
87.211151 26.062977 303.39029
13.061501 -17.782684 106.94687
0.047697008 -13.890652 225.74118
28.548683 16.813324 -33.72551
37.284496 -5.0415606 130.98709
8.3480473 -24.022301 26.442289
-10.662937 23.35692 4.2249999
-24.249723 -19.398373 104.60318
24.070518 -17.44038 22.911251
-66.648399 -38.100006 302.78339
21.011187 -11.427073 13.318274
-6.9873781 -10.67367 258.8468
28.009842 -7.9282465 259.40207
-43.916504 2.3356462 216.85947
-16.429035 -21.986307 -44.775005
-6.7430496 -20.530329 305.22501
-27.086193 4.7445917 255.62514
61.7654 17.440771 84.735542
-83.267784 -38.100002 -4.4017458
32.099468 -8.2702141 140.16731
17.123747 -13.886478 182.11607
23.391518 -19.057737 296.22501
-34.779736 -38.100002 297.85278
-59.665493 3.8792584 4.2249999
59.679848 19.531137 237.612
40.955769 5.137794 56.328274
-46.321899 5.5825224 305.22501
-61.432144 -3.6709659 31.37158
-40.691883 33.936089 4.2249999
-2.0304697 -12.110086 250.2682
-42.89241 4.1955814 295.11264
-19.041336 -25.117231 49.471142
-22.016987 -10.065591 117.22536
-47.835323 -9.7420702 8.0538788
-47.823471 -8.401494 110.68336
-45.768082 3.267803 213.00832
-19.855669 -11.243315 210.46095
-42.51519 5.3107758 183.54895
-6.6161947 -18.658012 26.155767
51.816334 13.557838 205.89697
-40.496422 18.665871 292.39035
-13.958724 -15.055197 67.83889
37.741894 3.2585771 83.085556
-12.204804 -19.275171 132.57901
50.537476 13.309288 127.16584
55.384403 7.0637231 22.829586
38.970917 -3.330791 231.2825
19.218248 -8.3711147 305.22501
-1.1597227 -7.6195621 183.73531
10.884583 -11.707868 61.284977
61.508522 16.056444 128.62921
42.91156 36.136749 305.22501
-34.152496 -7.5219712 305.22501
40.68895 -2.5771651 176.65546
47.803108 10.78249 161.39395
54.875919 16.811302 149.02629
-40.638035 3.0535302 241.60391
-22.348495 -18.295725 122.78897
39.801563 20.998569 -4.7749996
-53.962772 6.4679809 132.91705
-56.104286 1.0259295 296.22501
1.787568 -7.2067451 189.48109
44.132328 8.3778572 287.2066
30.411812 3.4558399 291.18451
14.328405 24.956371 -44.775002
-3.7979798 -9.2311363 286.07706
45.61808 0.88199049 214.5574
73.004822 25.875328 6.7508812
34.602913 -15.414957 -19.868114
-38.423088 29.238651 296.22501
36.875927 -3.8288028 276.33014
26.812243 -26.38084 296.22501
-21.082762 18.788126 4.2250004
31.345554 -0.21135853 140.11128
-18.152065 -8.4824381 146.40524
-19.738142 9.4821281 -21.231512
55.274406 10.132185 63.636471
-28.73904 -32.446812 5.2300739
-58.627525 23.445309 301.68695
49.36343 10.737758 8.426897
-13.865157 -10.47523 129.28275
17.558304 31.119986 -4.7749996
-4.354744 -25.036707 305.22498
-8.7847557 -22.333641 90.401398
17.268776 38.051323 4.2249999
-12.237771 11.360848 305.22501
-32.69891 0.44136065 292.79297
11.70078 -13.365071 35.609619
17.854395 -38.100002 297.94186
47.938675 -28.971064 296.22501
41.783001 7.074419 283.0907
-21.399605 5.5922847 -40.854637
55.385017 17.962515 105.75638
-41.179222 13.993506 4.2249994
49.559509 12.272518 151.73772
59.629467 19.775871 23.788115
-27.038818 -36.398079 305.22501
-42.897964 -38.100002 -0.60920519
-71.063896 -6.2446756 4.3227415
-6.5814834 -11.226339 252.92645
39.242512 -3.9966269 78.560776
-49.848457 -6.6222887 6.2122984
-42.757126 -21.137609 28.933744
12.617387 -5.1799898 205.62848
-64.30558 -10.140547 296.22501
38.145779 -4.0111632 201.67529
-34.993988 -36.412277 305.22501
63.937675 -3.0712519 -4.7749996
-30.83297 0.71726668 199.12634
-9.3297453 -22.493406 88.073578
29.144165 -24.017841 -10.710325
56.335781 10.202879 162.82539
34.498871 1.0437472 83.348663
-62.938618 -9.3755627 28.99951
0.20670545 -15.664256 196.42697
41.768394 6.9229202 263.02994
-20.107185 8.6907158 -9.3994455
35.735836 4.3153892 -39.369186
58.200665 11.769422 172.73236
24.257664 35.522755 -4.7749996
25.067142 -3.678901 123.62099
-23.530605 -17.518875 7.9872413
-17.129425 13.748201 -7.7087355
-6.6657109 -12.705643 232.95816
-31.020247 -1.6733434 293.7764
-68.176231 -27.274734 296.22501
36.138187 -4.9946318 220.60236
15.091234 11.338766 296.22498
44.711647 33.423668 4.2249994
51.568588 -15.066687 296.22501
-41.180557 -35.81028 305.22501
-42.608196 -27.500549 305.22501
51.520782 5.6494217 181.60394
0.23732466 -2.4611933 265.41171
-35.126602 23.889233 296.18713
8.9454556 -17.720551 137.49536
14.371897 -6.8779831 4.5789456
-43.524712 -18.098696 305.22501
63.976761 18.350994 164.26259
-38.321957 -1.6398759 142.99115
19.446846 -7.2545118 84.715996
-9.6872063 -19.138649 137.12683
-34.313606 31.657051 -4.7749996
49.194252 4.1338964 137.69783
-55.054039 -5.0691929 39.265514
43.293415 7.7180004 259.78796
34.206039 2.2430685 207.88232
19.998392 -1.1189675 269.62503
-34.160496 -21.21629 56.306999
58.014442 9.940114 23.72316
-0.18224588 -13.431543 232.46448
28.551701 -10.570394 120.20793
51.673546 -26.313694 -4.7749996
-32.391251 -15.456798 296.22501
28.446846 1.5935675 286.82507
-22.056482 -9.9672031 215.92828
36.546207 -9.9872913 -4.7749996
-33.143711 -3.5153646 147.83496
-66.384277 2.5877972 -4.7749996
-44.29105 -27.354815 -4.7749996
-25.05772 -22.134249 71.762756
46.592804 10.05711 126.34743
-58.668121 -10.802165 -4.7749996
46.812351 17.78598 -4.7749991
-19.588295 0.95866364 250.33076
-22.102287 -10.769835 -44.650208
-14.882051 -9.0368834 253.72153
-52.92107 14.753866 296.05344
31.692429 -13.667356 295.95801
-25.102093 -1.48396 201.84813
-42.933342 26.887896 4.2249999
1.0163851 -14.789968 54.7696
28.631245 -9.9486885 155.19696
-32.414833 0.17360532 186.59659
51.503201 12.871243 277.50641
10.915226 3.9914045 4.2249999
17.238209 -35.822212 296.22501
-56.754234 -1.0790405 305.22501
29.072733 -8.4324789 222.26593
63.482628 16.808544 181.16272
-18.709633 -13.476198 82.72142
-55.807568 -6.8268805 -4.7749996
-49.269474 2.9633374 190.23911
38.317318 -4.4018917 116.54405
5.9569931 -10.479254 305.22501
46.731178 9.7857571 267.11749
-41.639542 -12.251671 -4.7749996
24.55724 -15.226245 45.359035
-2.8157079 -9.6351681 149.97035
61.902649 -15.035288 305.22501
-57.552952 -8.0799751 64.036041
37.717438 -8.7804375 295.07645
17.04771 -18.520855 52.230556
-7.8709717 -15.262095 195.16238
-39.094856 2.0684886 242.37631
-13.984182 -0.76834786 251.54564
-75.192581 -38.100002 -3.6983862
-46.351768 -13.530085 76.330856
29.369719 -0.69934022 169.17493
25.447348 -10.821574 185.46039
53.307053 15.433842 146.30806
49.25079 4.3182673 121.38705
5.1295271 -17.451546 157.66222
24.64999 20.22315 -28.39093
-20.464191 -15.725113 -39.560555
-29.184219 -14.666465 138.80957
41.273949 -16.970375 4.3433752
8.7903061 -11.334822 81.253014
-16.092701 -13.013865 92.16777
-12.467941 -22.74123 84.267693
-28.221418 -5.9869423 142.03204
21.470018 -36.902344 -4.7749996
59.846962 20.832062 83.713692
-17.735733 -0.66717684 240.62265
-45.151329 15.502756 272.0657
29.953558 -0.98012668 136.77068
-18.978851 -18.906948 -5.6835794
-18.363735 -19.785427 -23.704525
-36.915878 -20.788748 51.612938
-65.551666 2.9153473 4.2249999
-32.610336 -25.767187 18.644943
51.380249 6.349196 105.48748
-24.307497 -16.506964 41.873669
-19.487976 -38.100002 -2.196183
6.2056627 -23.286991 42.042427
-39.545738 -15.081585 92.542206
26.805166 -13.536718 50.061802
53.3367 6.8056402 213.01022
28.104137 -7.9634542 256.836
-73.669167 -2.6075716 296.92407
-36.128048 -13.002788 126.28754
-26.624725 -11.819778 178.17995
31.820175 -6.864696 240.33096
31.266565 38.099998 -2.7035553
41.165352 6.7418022 280.68143
14.937221 24.912537 -19.591825
47.326733 10.174992 258.06357
42.965698 -0.93558687 156.10733
-34.999908 -35.633617 296.22501
-49.97105 8.1132174 223.49139
18.844597 -10.236376 267.39566
28.256554 38.100002 -1.8443438
-40.928772 -14.102096 95.352203
5.2372036 -15.448238 196.75189
40.638153 -2.631618 139.20497
-15.505316 -5.4681125 305.22501
45.984009 9.3136301 274.5759
24.515621 -9.15872 257.21161
-63.458485 -9.2515917 20.706387
-35.787384 10.854914 266.86523
-31.889374 -17.446032 100.31578
29.480207 23.695309 -4.7749996
-77.569275 -27.823719 296.22501
-17.197361 13.660651 296.22266
-81.681892 -16.626423 4.2249999
19.733826 -3.0390713 218.88089
-54.886684 7.4167528 148.95676
19.914448 -33.144684 -4.7749996
-16.86054 -4.0693312 202.97766
-69.551582 -13.816389 -4.7749996
7.0645342 -10.597302 281.99478
-61.483532 -7.149333 51.531075
49.123066 16.776102 4.8231654
25.15329 -14.005822 59.82793
-45.103531 3.5537949 219.15228
47.065578 1.1637834 41.637299
-36.068645 -6.6136498 -4.7749996
36.863411 -5.4274797 -10.899839
-2.1764698 -13.17565 88.201096
70.592865 -2.7207298 296.3732
-27.730545 -5.1695914 294.78781
19.248043 -12.91202 191.39854
-27.504772 2.2062039 228.9444
-55.638184 -6.7431936 305.22501
12.654589 -38.099998 -0.13169527
-45.521545 22.02054 295.41031
-48.729103 5.1875367 210.14182
-12.557945 -27.804909 305.22501
67.395515 13.912567 293.62534
37.092045 -3.9693213 258.70361
20.959398 -16.979977 47.635353
-40.784477 -25.063946 305.22501
-22.618586 -7.5269275 238.8002
7.5056243 -15.710599 26.455418
-18.54225 -34.760227 305.22501
15.552512 -6.209106 161.7632
-13.610209 -16.799337 163.32257
-63.228725 -10.502824 11.921338
16.99567 33.464867 -4.7749996
-29.034824 2.0219955 305.22501
-10.222022 -14.607919 74.305695
49.338402 -1.2298954 9.576149
36.027351 -11.027446 -21.762905
20.755178 -10.513358 248.47516
-32.372265 -4.0479898 146.13036
31.700363 -8.3719893 150.28146
-0.0068631768 -18.076679 21.979279
-41.062454 -2.0353429 126.71442
24.158424 -18.006239 -44.775002
28.299467 29.985607 305.22504
-39.19392 -6.0528889 4.2521133
-10.936111 -19.501028 305.22501
-43.06176 32.615856 -4.7749996
1.2189169 -15.346493 47.178822
50.476135 15.846726 5.5910692
22.772606 -9.8832321 251.47864
-16.224136 -7.6300783 162.14554
-22.564295 1.1139084 -18.163189
8.830204 -10.910129 90.383263
53.938782 14.894902 237.40417
72.496498 0.57645798 302.4823
-12.181318 -16.340511 52.606194
-19.6157 -13.076628 86.053024
41.352921 6.350512 226.04346
-11.412111 -8.044878 277.59216
-46.866852 5.1907978 158.84195
-41.786819 -10.380693 123.81008
12.601014 -2.0278041 274.49118
24.384401 -8.241642 28.556707
17.420532 -9.2849216 58.79266
6.1109767 -8.1200275 164.67276
-38.511738 5.8087425 275.63083
-10.880721 20.065729 -33.610943
22.802008 -5.8021145 82.670517
30.301367 0.69780755 223.57344
-9.6485739 -9.1216564 291.42212
42.907452 7.2023926 192.18333
-55.252541 -26.410395 296.22501
-92.698761 -35.567799 297.71017
-7.4524326 -9.071002 157.36313
-43.467995 -21.767067 20.566254
-57.327389 -7.110383 71.796104
-62.741646 -4.873806 30.565462
41.65332 6.344739 164.0752
46.849785 1.7083015 243.69287
-25.417812 -15.624371 142.46246
18.179827 23.86076 -25.354317
15.621693 -31.879761 -44.775002
-20.595577 38.100002 4.1394825
32.801579 0.026611924 89.160156
48.969505 -20.016697 4.2249999
-38.158962 -29.000671 -4.7749996
45.067589 14.425002 305.22501
34.957413 -14.654718 -27.890287
-26.85104 32.604698 305.22501
12.192164 -17.287212 128.036
2.6417661 -14.844488 49.371571
4.3653708 25.869759 -36.875351
12.301175 -11.023027 270.91797
36.607998 3.1413758 164.60098
67.127594 -8.7227612 299.08456
-57.941383 -11.407159 305.22501
61.002007 30.616272 4.5044694
-65.935715 -38.100002 -2.8322053
51.964256 5.8269567 199.63101
14.819309 -10.202869 62.406174
-34.575619 -25.545502 -4.7749996
-5.3914108 -16.031197 187.53589
-10.538003 32.038074 -4.7749996
-15.363505 -0.13908076 305.22498
18.089407 -6.6650205 122.55611
-43.528934 -11.964241 101.92223
19.29504 -7.2368922 87.513809
-48.06179 -35.237751 305.22501
38.097984 12.093087 305.22501
44.791256 32.592255 305.22498
-33.162979 18.765541 4.2249999
-13.198057 1.3402624 279.69421
-46.322056 -5.677804 -4.7749996
-50.679874 -24.389599 296.22504
46.814289 1.784198 202.93033
-2.0229702 8.0184574 4.2249999
-74.426178 -3.9187589 304.32193
45.858929 9.2604427 172.84439
0.045068383 -15.121488 53.040482
44.523968 0.25567257 139.64024
5.8002129 -17.123238 162.57291
-24.992886 -29.009272 9.0401707
3.5209582 -17.878429 153.15828
10.743441 -11.050427 272.3779
-7.1570597 -14.706409 204.05327
-66.945984 -1.7690525 -4.7749996
30.6684 -7.1067228 252.12473
51.449684 -35.002567 305.22501
19.270836 -38.100002 0.27596343
-39.461967 -23.852339 14.435118
56.37154 16.728121 241.28487
40.70158 -3.8315954 47.53194
-12.22794 -9.2423973 148.80829
-12.603821 0.73561043 274.73071
12.110431 -15.364006 295.15967
45.089874 -0.096375987 49.019745
80.184273 13.892077 299.29498
41.572445 -3.8505788 -4.7749996
-17.958782 12.563757 -19.696663
16.696978 -17.601341 75.82785
63.278328 22.449219 305.22501
-35.962357 6.3178177 225.79852
15.367922 -13.777594 17.138983
21.002245 -14.289287 121.6828
-12.402235 -17.94651 150.10812
49.11153 3.1958992 281.7041
-26.449987 -29.288548 296.22501
-17.956707 -29.442719 9.7324038
-38.752464 -0.669846 221.85049
45.072121 8.7865 70.121452
6.6329112 -14.320654 43.168526
24.876295 13.70521 296.22498
6.6136622 -16.736156 10.961684
-5.3194504 -38.100002 -4.7195058
-27.737171 4.3288131 248.44162
16.732132 -16.646057 101.28828
1.0462651 -13.211432 237.19
-12.226923 38.100002 3.9457402
15.108439 -7.1971879 137.71042
6.5827427 -20.224163 93.080421
21.882421 -29.934214 -24.791061
-10.532374 -3.3877509 230.95929
62.482513 16.186659 165.72101
-40.16671 23.245104 295.69983
-17.502016 36.62104 305.22501
15.495653 -7.2387638 134.0542
40.552864 2.1549261 9.7678032
54.801723 15.138865 282.06244
20.963554 -15.823191 70.315628
-2.6715271 -23.044024 72.47641
48.403416 2.7229819 283.27393
82.614624 37.143951 296.22501
39.36726 22.850529 305.22501
21.4235 -0.30897045 305.22501
-41.460785 36.275791 4.2249999
-19.117855 10.81234 -27.965569
25.334221 34.07032 -4.7749996
53.946682 8.8913174 98.922501
-10.158597 -9.02215 270.36154
-8.8520145 15.751883 305.22501
-8.0418205 37.894157 305.22501
-8.2608385 21.900192 -30.615068
0.039032102 -20.216015 116.60552
45.221554 -17.139803 -4.7749996
-17.923201 -12.389515 204.46809
-38.491776 21.784962 305.22501
55.144341 7.5306902 280.70364
80.777611 16.003773 296.22501
-11.420306 38.099998 297.41171
16.63183 -21.806541 15.763144
-23.315325 -9.9163227 295.81329
-20.557148 -15.525766 -28.201687
25.76841 2.9184303 4.2249999
27.040115 -26.121893 -33.009636
-46.962742 -20.475441 -4.7749996
-49.221642 8.2949753 230.10524
48.85817 3.0209639 274.40955
61.770164 25.336233 294.23303
64.799286 16.908308 229.49358
-22.010096 5.3203878 286.02829
-54.668648 5.4769659 120.67861
58.856335 19.600628 193.95494
-18.71653 -19.823933 12.107147
41.315056 23.95318 -4.7749996
-2.4897738 -10.111218 277.45004
38.518089 -2.9384289 280.44705
-16.376614 -4.1099548 4.2249999
12.534338 -8.6915169 119.17129
-29.741301 22.545006 296.22498
12.693456 -18.589806 -44.775002
11.884713 -17.163958 132.96756
-44.326183 -30.714588 296.22501
76.817123 33.297119 -4.7749996
-28.978786 6.7727041 266.37991
6.3092437 -13.90245 49.390015
20.081509 -3.0111856 -44.775002
84.458817 27.711117 4.2249999
-3.7559521 -27.025814 24.601454
28.186874 -10.924371 305.22501
-37.255821 10.542694 256.14929
-34.096432 -6.8119311 192.62361
27.963245 1.1198001 274.48889
-19.544025 -16.914616 43.581383
64.524147 25.857521 292.92114
-33.072502 14.665377 4.2249999
20.63168 -33.357922 4.2249999
36.804413 -6.1018019 -22.053181
42.617416 7.0312343 140.4481
-59.964024 -8.0394897 52.779861
1.0633655 -12.931823 84.51181
29.735819 -7.5052876 290.65192
59.701981 12.073634 228.94073
35.516876 3.7610774 -44.775002
-4.9761009 -9.0119104 159.95193
26.991867 0.86257446 276.02249
-13.219433 -17.43368 41.364006
24.646503 -10.433243 212.33203
-26.152756 -0.90482414 287.83881
11.996935 -11.567948 260.70535
43.08625 6.7676268 55.471344
-34.992725 -1.8304973 232.16623
58.865871 23.809822 305.22501
-14.21733 -6.6963835 281.8877
-30.100212 -0.3844167 270.4343
-40.880978 6.1886292 4.2249999
25.605286 -1.9859807 189.37199
34.89341 -6.1546679 185.82498
-40.432392 4.4887266 186.68256
-30.927612 -2.634125 166.37259
-45.553009 -19.324944 33.606071
44.00042 -32.608425 -4.7749996
-50.953289 4.6188407 192.94766
35.749134 -6.3291874 99.332382
54.359455 8.6035261 148.72046
48.57777 3.6991849 126.27588
-34.607327 -14.69309 36.65361
30.510099 -7.269845 247.69092
40.907909 -2.444267 132.93954
-23.721428 25.125853 296.22501
50.484818 -5.4132137 -4.7749996
36.338223 2.3898506 96.521042
45.048279 8.7560263 142.30609
-14.147652 -15.238023 181.79747
36.558189 33.820343 -4.7749996
-9.4887323 0.28558558 280.09741
57.250267 -1.9141912 -4.7749996
-84.577721 -25.50507 4.2249999
-5.5089006 -4.0550709 233.401
67.948151 -7.3015175 2.3633077
9.9987774 -9.7174931 110.62221
-61.258568 -37.604706 -4.7749996
-51.568115 -7.4882488 36.238121
33.930565 -0.80848724 43.278339
53.344139 35.995171 296.22501
-41.445293 -11.511051 115.65432
38.814613 4.0767794 84.736267
45.463383 0.89319354 169.53789
39.593742 5.1027665 193.90625
-27.144459 -20.147781 87.973938
49.365417 16.046743 294.32346
57.769001 10.885582 198.81856
29.73436 -1.7691185 96.962776
18.69548 -5.3429775 160.33871
7.2312136 -10.980515 98.027496
14.934299 0.85760927 4.2249999
-23.574575 -33.940422 4.9496832
-15.297482 -16.330914 6.1355247
-23.439514 -8.4631872 225.65929
32.729134 -19.255148 -7.2929292
-66.273315 -23.47611 -4.7749996
20.188244 -7.465857 71.04129
19.11883 -10.333979 263.74384
8.3303108 -14.16752 39.387108
-51.344643 -3.6588714 128.9416
38.899323 -15.889042 -4.7749996
-1.6867061 -13.993708 5.3569012
17.63974 -27.621418 -44.775002
-12.05591 -11.4066 4.2582121
18.616892 -11.890361 225.72363
53.622581 8.2082672 54.194172
-6.0308146 -0.61808038 278.93182
69.010887 12.489456 305.22504
-88.16983 -27.723461 299.6879
49.72728 4.8578615 91.832306
-46.21431 -6.0395966 137.80576
12.659872 -19.498583 68.198959
-53.392082 17.855625 -4.7749996
-27.566614 -5.2303972 238.73488
-63.5891 -37.724052 296.22501
-32.822914 -7.432137 110.80416
37.279816 3.8493199 201.54184
-11.706882 -10.967581 125.61388
-38.411263 -12.236283 123.23057
19.675865 -13.696114 162.24844
-1.9275727 -6.0923071 -44.775002
-52.807701 -4.5820184 52.304737
4.6132727 -14.691904 211.23972
33.12476 -8.9178314 -44.774998
-29.964279 -1.9585211 -4.7749996
-45.371769 -21.651783 11.924868
-39.701218 7.7039795 283.05334
-7.0456161 33.839985 305.22501
61.831245 15.156128 180.95654
-26.822338 23.770933 296.22498
36.239269 29.355593 4.2249999
56.552601 19.048584 106.833
4.966135 -33.722317 -36.558681
-10.621572 -10.807076 247.25128
-42.338596 -10.85839 44.936146
-53.470062 32.378304 301.32925
12.185919 25.646034 -20.327106
23.614231 -27.89867 4.3278885
-38.341579 -24.341543 12.764341
55.830093 17.930984 135.82698
-36.514935 -6.9634285 179.37143
18.663509 -17.919209 50.034016
42.669113 32.611946 4.2249999
29.719448 -8.7988415 188.51537
59.51619 11.031687 280.83017
-54.938751 -16.380568 14.239543
-41.488041 -14.317791 305.22501
62.188454 33.365051 305.22501
38.834042 -4.4977822 67.791893
-11.161989 19.868782 -35.361542
-10.339845 -16.530483 173.24698
-15.198249 -3.2888374 -44.775002
-57.028278 5.6087446 -4.7749996
-38.695904 -14.628922 100.06401
62.809795 22.885525 21.268044
62.235611 -13.624643 4.2249999
30.821035 -23.782097 296.22501
-1.5968645 -21.573677 296.22498
33.052135 10.940608 -34.83923
-40.725052 25.045822 296.10669
-38.075729 -19.588436 58.177162
4.0417705 -3.2292614 257.93848
-45.541862 -1.7226105 107.89165
-1.8732245 -21.314325 100.39988
-42.178963 -16.935749 65.666527
47.717869 2.8425808 144.3145
48.99432 11.999756 58.575283
-50.965061 -3.0811896 135.30875
21.419903 -10.873948 233.51581
4.9380517 0.086448073 4.2249999
-16.104736 -36.22179 305.22501
54.467911 1.9562449 305.22501
-54.27932 -10.994745 -4.7749996
-3.8819683 24.002407 -38.147926
73.680557 31.752621 296.13733
50.35289 12.104298 286.24713
-41.266094 9.2897644 287.71677
75.283714 5.4040565 1.0505483
46.751987 2.2181697 114.22051
14.84365 -17.829802 89.057129
17.551937 -9.3280354 56.975433
10.654041 25.780056 -34.586258
-35.23748 -11.695991 60.984795
-20.709488 -15.199067 -23.773087
-41.383461 9.4395046 223.61421
57.349567 9.2031221 284.95554
-55.369385 -5.7673192 32.608444
12.450933 -8.9016247 114.3441
22.210442 -1.9344634 233.55142
26.67215 -9.3437643 224.98282
27.065887 -1.4774591 187.16476
-46.722439 19.303431 4.2249999
66.464691 29.207668 294.74014
2.3377554 -10.611997 125.14484
11.668295 -31.550447 4.5354767
-62.922504 -3.364691 63.184875
11.657459 -7.9727001 142.63458
-74.652863 -23.112175 4.2249999
45.382156 -18.737404 296.22501
45.734589 1.0067511 201.42561
-59.440575 -12.482661 24.375616
-52.45821 7.8667092 151.84789
35.446609 -13.194803 -28.772243
-20.48905 -16.319939 48.437271
-22.661921 -7.7980371 -42.758492
-45.788601 -16.388914 55.644794
-36.010811 -10.500332 69.580826
-38.942825 3.2415183 252.75659
5.7924309 -7.636117 175.80981
-5.2335362 -9.1068592 -44.775002
-36.052921 5.6840076 219.72066
30.684832 -22.405079 4.6299391
36.909889 -5.3460307 122.46483
-9.6356716 -26.881641 296.22501
-39.179344 3.4776196 184.21475
-21.9716 -17.510761 35.77071
-47.059448 -25.294559 305.22501
-32.944492 -3.2267303 230.65938
24.424051 -10.775454 202.77316
-22.758438 -26.484444 31.438457
-14.231579 -12.699183 98.60289
-45.136162 -17.579187 49.035599
-68.472168 -31.22904 4.2249999
-14.505287 -17.496696 152.16661
57.888912 11.135404 305.22501
10.097204 -21.339743 51.119484
22.604239 21.655603 -12.110777
61.158165 13.205969 23.517426
-56.279781 -32.11808 4.2249999
-40.511055 -8.3116055 147.77921
-0.1637345 -10.77426 272.54352
-68.353264 -35.78447 305.22501
-91.24585 -38.099998 1.3584962
-29.728714 7.3855066 268.23019
-81.855957 -16.78751 -2.7179015
-5.9420557 32.526222 4.2249999
3.7973347 3.2137938 4.2249999
-0.13672233 -30.505478 -44.775002
-17.69286 0.51662445 253.80972
-76.124626 -30.378109 -4.7749996
-24.709948 -4.2571378 4.2249999
4.4019699 38.100002 302.77942
8.6289549 -8.8860254 138.25613
-35.049915 -32.787308 296.22501
26.509472 -9.4572926 222.98071
14.822238 -13.315155 212.28981
-6.7962618 22.643452 -26.838173
-7.0686588 -7.1925621 185.79382
13.607597 -12.893164 227.75735
-2.5809481 25.254414 -4.7749996
-55.021687 -38.100002 -4.7672305
-28.958143 10.944022 305.22501
-8.5728588 22.002964 4.2249999
55.576035 8.559823 219.45593
-5.7704988 -4.6403871 224.71863
49.047794 11.486439 45.871307
-49.179466 -3.257391 143.92667
49.57864 12.646826 109.99831
-1.655813 -13.205742 234.19475
-52.318283 -5.3841567 6.3351507
-61.731575 -4.9511428 9.1990643
33.891388 9.1408272 -41.584148
-21.021858 -10.867754 110.02596
47.2314 10.525665 62.074841
-39.172432 -1.7297909 210.55844
-79.044197 -24.200945 -4.7749996
-42.028111 -0.89763772 131.82289
36.471996 -27.442368 -4.7750001
24.446217 -4.3443785 107.08891
-0.6126647 -14.516328 215.36281
58.961845 10.419907 19.348389
-12.067677 -5.0853949 204.86963
-7.9552498 -18.09269 154.2477
17.492739 11.077095 305.22498
-21.663998 -4.7736597 270.62631
25.121941 -20.016335 -44.775002
36.69545 -7.3472648 -34.94455
39.649639 -3.0985525 198.31964
32.850414 -6.2577691 247.96497
7.7037773 26.038172 -25.853619
55.137341 9.2733269 45.837669
38.637215 4.1665373 125.00385
-17.901157 20.871473 4.2249999
-27.164619 -3.8714786 253.63963
-1.0553601 -15.80332 46.855835
-3.5939722 11.424667 305.22501
-22.31374 2.1806893 -22.058546
86.235985 38.100002 4.0256925
-57.883141 3.4270539 133.43132
-9.1604309 -14.677229 72.832832
18.085304 -9.2129459 54.928303
45.39267 38.100002 2.2501442
-57.342407 1.4384671 75.59597
-14.405542 -22.662153 83.533417
4.1967793 -1.4458666 286.05212
-3.5066185 -14.247426 216.28281
33.777931 -17.184134 -16.678123
37.346615 -4.8108068 158.47997
-49.200043 12.199185 217.0748
-40.317741 38.100002 0.59714818
62.018066 17.767405 69.584412
-85.827209 -36.886681 4.2249999
-54.380455 -32.894405 4.2249999
23.02911 -0.64662677 264.77704
-24.701109 -18.042021 118.36932
-21.662657 -9.2323503 225.47252
-22.485672 -38.100002 303.23187
33.276192 -5.8732758 257.36334
55.10675 15.773005 239.52774
-48.229233 12.917487 226.96428
-12.01255 -12.977066 295.38351
2.8399637 -11.447464 106.75505
-43.93401 7.5094547 193.77129
25.705967 -10.814983 181.05424
-27.971783 36.227856 305.22501
59.911362 13.930899 150.81377
50.365002 -4.4443831 305.22501
1.179926 -7.4001484 186.33875
-38.705505 -38.100002 -3.3240023
13.87015 -38.099998 -2.8350239
-68.90152 -22.658945 -4.7749996
-37.967571 -38.100002 1.1762371
51.36446 13.101394 39.128323
48.428959 3.2718232 162.52769
25.612144 -11.45124 154.66008
-45.481087 -5.2773347 147.76544
-66.988129 -22.92486 305.22501
-26.496567 -19.750839 94.033615
-5.8961849 -11.341503 4.3155293
8.4413242 -3.8035638 245.47214
22.921041 -10.288067 237.24005
35.496445 5.2088289 -16.108795
32.419411 -38.100002 296.32959
36.634743 -4.260757 -44.775002
-51.968933 34.978333 303.62863
-10.760859 -24.536638 60.118423
1.9685774 2.9132862 4.2249999
28.023975 17.338032 -22.508953
24.064676 17.337172 296.22498
61.690308 21.889977 204.14694
35.800148 -11.87537 -9.4868488
-4.0996075 -35.793571 296.22501
-22.274357 2.3276601 -25.583504
-21.315649 -27.387169 305.22501
12.393545 -15.561731 170.47818
-43.153461 -34.16914 296.22501
48.87825 -37.711788 305.22501
8.899785 -12.903881 52.344063
17.992853 -12.230923 21.194477
21.662422 -3.1711757 198.65443
28.147345 -6.6247339 10.104353
-7.607338 -30.065241 -16.548504
-42.442978 -3.0112944 305.22501
39.245152 5.1034036 219.84294
-43.756252 -18.075573 50.218277
-28.775349 -13.421149 62.784233
3.2472939 24.500309 -44.775002
-3.5311997 -17.753025 31.002554
54.192993 7.3716841 224.16455
-60.995373 14.724566 4.2249994
-38.618042 11.287116 254.48273
-43.457325 28.593658 296.22501
-49.20137 12.125824 215.08554
6.5944347 20.250225 305.22501
34.90974 -6.1071978 188.89056
55.978271 16.789268 305.22501
-65.070969 -8.4258852 -4.7749996
-59.906872 -28.717407 -4.7749996
-44.878063 38.100002 297.84601
-39.996613 14.739079 -4.7749991
-36.268414 -13.699017 40.748226
6.7082639 38.100002 299.30341
11.151503 -17.88727 120.02715
65.657997 22.465424 220.50227
35.776802 -7.0151052 63.428288
-22.966106 -4.3211679 -13.276668
63.561234 -11.420916 296.22501
40.934235 -2.4284034 124.14531
0.33571464 -33.055199 -15.152526
-49.416534 -5.7869 57.636879
-43.570293 -24.901196 7.3771477
25.557556 -17.588278 12.703463
-13.08218 29.976313 -4.7749996
6.0691919 -36.404804 4.2249999
84.063797 38.099998 302.36636
36.457726 -38.060371 296.22501
-57.120747 3.3148713 92.756935
14.560754 -10.637811 273.4039
63.886459 23.394047 15.750642
22.804228 -38.100002 299.17642
-40.955444 -13.548453 27.793118
-38.397095 -1.2514249 146.38208
65.124733 23.220638 231.26682
30.750875 14.280386 -8.6175699
